ply
format ascii 1.0
element vertex 1291
property float x
property float y
property float z
property uchar red
property uchar green
property uchar blue
end_header
3559.91 -5948.75 3966.72 239 242 247
3539.31 -5948.75 3985.11 240 243 248
3518.62 -5948.75 4003.39 240 243 248
3497.82 -5948.75 4021.57 240 243 248
3476.94 -5948.75 4039.64 240 243 248
3455.96 -5948.75 4057.6 241 243 248
3434.89 -5948.75 4075.46 243 244 249
3413.73 -5948.75 4093.2 242 243 248
3392.47 -5948.75 4110.83 243 244 249
3371.13 -5948.75 4128.35 243 244 249
3349.69 -5948.75 4145.77 241 244 249
3328.17 -5948.75 4163.07 241 244 249
3306.55 -5948.75 4180.25 241 245 249
3284.85 -5948.75 4197.33 241 245 249
3263.06 -5948.75 4214.3 242 245 249
3241.18 -5948.75 4231.15 242 245 249
3219.21 -5948.75 4247.88 242 246 249
3197.16 -5948.75 4264.51 242 246 249
3175.02 -5948.75 4281.01 242 246 249
3152.79 -5948.75 4297.41 242 246 249
3130.48 -5948.75 4313.69 243 247 250
3108.09 -5948.75 4329.85 244 247 250
3085.61 -5948.75 4345.9 244 246 250
3063.05 -5948.75 4361.82 245 246 250
3040.41 -5948.75 4377.64 245 246 250
3017.69 -5948.75 4393.33 245 246 250
2994.89 -5948.75 4408.91 246 247 251
2972 -5948.75 4424.37 246 247 251
2949.04 -5948.75 4439.71 246 247 251
2925.99 -5948.75 4454.93 245 246 250
2902.87 -5948.75 4470.03 245 246 250
2879.67 -5948.75 4485.01 246 247 251
2856.39 -5948.75 4499.87 246 247 251
2833.04 -5948.75 4514.61 246 247 251
2809.61 -5948.75 4529.23 246 247 251
2786.1 -5948.75 4543.73 246 247 251
2762.52 -5948.75 4558.1 246 247 251
2738.87 -5948.75 4572.35 246 247 251
2715.14 -5948.75 4586.48 246 247 251
2691.34 -5948.75 4600.49 246 247 251
2667.47 -5948.75 4614.37 246 247 251
2643.52 -5948.75 4628.13 246 247 251
2619.51 -5948.75 4641.77 247 248 252
2595.42 -5948.75 4655.28 247 248 252
2571.26 -5948.75 4668.66 247 248 252
2547.04 -5948.75 4681.92 247 248 252
2522.75 -5948.75 4695.06 247 248 252
2498.39 -5948.75 4708.07 247 248 252
2473.96 -5948.75 4720.95 248 249 253
2449.46 -5948.75 4733.7 248 249 253
2424.9 -5948.75 4746.33 248 249 253
2400.28 -5948.75 4758.83 248 249 253
2375.59 -5948.75 4771.21 248 249 253
2350.83 -5948.75 4783.45 248 249 253
2326.02 -5948.75 4795.57 249 250 252
2301.14 -5948.75 4807.55 249 250 253
2276.2 -5948.75 4819.41 249 250 254
2251.19 -5948.75 4831.14 249 250 254
2226.13 -5948.75 4842.74 249 250 254
2201.01 -5948.75 4854.21 249 250 254
2175.83 -5948.75 4865.55 249 250 254
2150.59 -5948.75 4876.76 249 250 254
2125.29 -5948.75 4887.84 249 250 254
2099.94 -5948.75 4898.78 249 250 254
2074.53 -5948.75 4909.6 249 250 253
2049.06 -5948.75 4920.28 249 250 252
2023.54 -5948.75 4930.83 249 250 252
1997.96 -5948.75 4941.25 249 250 252
1972.33 -5948.75 4951.54 250 251 253
1946.65 -5948.75 4961.69 250 251 253
1920.92 -5948.75 4971.71 250 251 253
1895.13 -5948.75 4981.6 250 251 253
1869.29 -5948.75 4991.35 250 251 253
1843.4 -5948.75 5000.97 250 251 253
1817.47 -5948.75 5010.45 250 251 253
1791.48 -5948.75 5019.8 250 251 253
1765.45 -5948.75 5029.02 250 251 253
1739.37 -5948.75 5038.1 250 251 253
1713.24 -5948.75 5047.04 251 252 254
1687.07 -5948.75 5055.85 251 252 254
1660.85 -5948.75 5064.52 250 250 252
1634.58 -5948.75 5073.06 251 251 253
1608.28 -5948.75 5081.46 251 251 253
1581.92 -5948.75 5089.73 250 251 253
1555.53 -5948.75 5097.86 250 251 253
1529.1 -5948.75 5105.85 251 252 254
1502.62 -5948.75 5113.7 251 252 254
1476.1 -5948.75 5121.42 251 252 254
1449.55 -5948.75 5129 252 252 254
1422.95 -5948.75 5136.44 252 252 254
1396.32 -5948.75 5143.74 253 253 255
1369.65 -5948.75 5150.91 252 252 254
1342.94 -5948.75 5157.94 252 252 254
1316.2 -5948.75 5164.83 251 252 254
1289.42 -5948.75 5171.58 251 252 254
1262.61 -5948.75 5178.19 251 252 254
1235.76 -5948.75 5184.66 251 252 254
1208.88 -5948.75 5191 251 252 254
1181.96 -5948.75 5197.19 251 252 254
1155.02 -5948.75 5203.24 251 252 254
1128.04 -5948.75 5209.16 251 252 254
1101.04 -5948.75 5214.93 251 252 254
1074 -5948.75 5220.57 251 252 254
1046.94 -5948.75 5226.06 251 252 254
1019.85 -5948.75 5231.42 251 252 254
992.726 -5948.75 5236.63 251 252 254
965.579 -5948.75 5241.71 251 252 254
938.407 -5948.75 5246.64 251 252 254
911.209 -5948.75 5251.43 251 252 254
883.987 -5948.75 5256.08 251 252 254
856.742 -5948.75 5260.59 251 252 254
829.473 -5948.75 5264.96 251 252 254
802.182 -5948.75 5269.19 251 252 254
774.869 -5948.75 5273.27 251 252 254
747.535 -5948.75 5277.22 251 252 254
720.182 -5948.75 5281.02 251 252 254
692.809 -5948.75 5284.68 251 252 255
665.418 -5948.75 5288.2 251 252 254
638.008 -5948.75 5291.57 251 252 254
610.582 -5948.75 5294.81 251 252 254
583.139 -5948.75 5297.9 252 253 255
555.681 -5948.75 5300.85 251 252 254
528.207 -5948.75 5303.66 251 252 254
500.719 -5948.75 5306.33 250 251 253
473.218 -5948.75 5308.85 252 253 255
445.705 -5948.75 5311.23 252 253 255
418.179 -5948.75 5313.47 252 253 255
390.642 -5948.75 5315.56 251 252 254
363.095 -5948.75 5317.52 251 252 254
335.538 -5948.75 5319.33 251 252 254
307.971 -5948.75 5320.99 251 252 254
280.397 -5948.75 5322.52 251 252 254
252.815 -5948.75 5323.9 251 252 254
225.226 -5948.75 5325.14 250 251 253
197.631 -5948.75 5326.23 251 252 254
170.031 -5948.75 5327.19 251 252 254
142.427 -5948.75 5328 251 252 254
114.818 -5948.75 5328.66 251 252 254
87.206 -5948.75 5329.19 251 252 254
59.5921 -5948.75 5329.56 250 251 253
31.9766 -5948.75 5329.8 251 252 254
4.36033 -5948.75 5329.9 250 251 253
-23.2561 -5948.75 5329.85 250 251 253
-50.8719 -5948.75 5329.66 250 251 253
-78.4863 -5948.75 5329.32 250 251 253
-106.099 -5948.75 5328.84 250 251 253
-133.709 -5948.75 5328.22 250 251 253
-161.315 -5948.75 5327.46 251 252 254
-188.916 -5948.75 5326.55 251 252 254
-216.513 -5948.75 5325.5 250 251 253
-244.103 -5948.75 5324.31 249 250 252
-271.688 -5948.75 5322.97 249 250 252
-299.264 -5948.75 5321.49 249 250 252
-326.833 -5948.75 5319.87 250 251 253
-354.393 -5948.75 5318.1 250 251 253
-381.944 -5948.75 5316.2 250 251 253
-409.485 -5948.75 5314.15 249 250 252
-437.014 -5948.75 5311.95 249 250 252
-464.531 -5948.75 5309.62 249 250 252
-492.036 -5948.75 5307.14 249 250 252
-519.528 -5948.75 5304.52 249 250 252
-547.006 -5948.75 5301.75 249 250 252
-574.469 -5948.75 5298.85 249 250 253
-601.918 -5948.75 5295.8 250 251 253
-629.349 -5948.75 5292.61 249 250 253
-656.764 -5948.75 5289.28 249 250 252
-684.161 -5948.75 5285.81 249 250 252
-711.54 -5948.75 5282.19 249 250 252
-738.9 -5948.75 5278.43 248 249 252
-766.239 -5948.75 5274.53 248 249 252
-793.559 -5948.75 5270.49 248 249 253
-820.857 -5948.75 5266.31 248 249 253
-848.133 -5948.75 5261.99 248 249 253
-875.386 -5948.75 5257.52 248 249 253
-902.616 -5948.75 5252.91 248 249 253
-929.821 -5948.75 5248.17 248 249 253
-957.002 -5948.75 5243.28 248 249 253
-984.156 -5948.75 5238.25 248 249 253
-1011.28 -5948.75 5233.08 248 249 253
-1038.39 -5948.75 5227.77 248 249 253
-1065.46 -5948.75 5222.32 248 249 253
-1092.5 -5948.75 5216.73 248 249 253
-1119.52 -5948.75 5211 248 249 253
-1146.5 -5948.75 5205.13 248 249 253
-1173.46 -5948.75 5199.12 248 249 253
-1200.38 -5948.75 5192.97 248 249 253
-1227.27 -5948.75 5186.68 248 249 253
-1254.13 -5948.75 5180.25 248 249 253
-1280.96 -5948.75 5173.68 247 248 252
-1307.75 -5948.75 5166.97 247 248 252
-1334.5 -5948.75 5160.13 247 248 252
-1361.22 -5948.75 5153.14 247 248 252
-1387.9 -5948.75 5146.02 246 247 251
-1414.55 -5948.75 5138.76 247 248 252
-1441.15 -5948.75 5131.36 247 248 252
-1467.72 -5948.75 5123.83 247 248 252
-1494.25 -5948.75 5116.15 247 248 252
-1520.74 -5948.75 5108.34 246 247 251
-1547.19 -5948.75 5100.39 246 247 251
-1573.59 -5948.75 5092.31 246 247 251
-1599.96 -5948.75 5084.09 246 247 251
-1626.28 -5948.75 5075.73 246 247 251
-1652.56 -5948.75 5067.23 246 247 251
-1678.79 -5948.75 5058.6 246 247 251
-1704.98 -5948.75 5049.84 245 246 250
-1731.12 -5948.75 5040.94 245 246 250
-1757.22 -5948.75 5031.9 245 246 250
-1783.27 -5948.75 5022.73 245 246 250
-1809.27 -5948.75 5013.42 245 246 250
-1835.22 -5948.75 5003.98 245 246 250
-1861.12 -5948.75 4994.4 244 245 249
-1886.98 -5948.75 4984.69 244 245 249
-1912.78 -5948.75 4974.85 244 245 250
-1938.53 -5948.75 4964.87 244 245 250
-1964.23 -5948.75 4954.76 243 244 249
-1989.88 -5948.75 4944.51 243 244 249
-2015.47 -5948.75 4934.14 243 244 249
-2041.01 -5948.75 4923.63 243 244 249
-2066.49 -5948.75 4912.99 243 244 249
-2091.92 -5948.75 4902.21 243 244 249
-2117.29 -5948.75 4891.31 243 244 249
-2142.61 -5948.75 4880.27 243 244 249
-2167.87 -5948.75 4869.1 243 244 249
-2193.06 -5948.75 4857.81 243 244 249
-2218.21 -5948.75 4846.38 243 244 249
-2243.29 -5948.75 4834.82 243 244 249
-2268.31 -5948.75 4823.13 243 244 249
-2293.27 -5948.75 4811.31 242 243 248
-2318.17 -5948.75 4799.37 241 242 247
-2343 -5948.75 4787.29 241 242 247
-2367.78 -5948.75 4775.09 241 242 247
-2392.49 -5948.75 4762.75 241 242 247
-2417.13 -5948.75 4750.29 241 242 247
-2441.71 -5948.75 4737.71 240 242 247
-2466.23 -5948.75 4724.99 239 241 246
-2490.68 -5948.75 4712.15 238 241 246
-2515.06 -5948.75 4699.18 238 241 246
-2539.38 -5948.75 4686.08 238 241 246
-2563.62 -5948.75 4672.86 238 241 246
-2802.19 -5948.75 4533.82 236 239 248
-2825.65 -5948.75 4519.24 236 239 248
-2849.03 -5948.75 4504.54 235 238 247
-2872.33 -5948.75 4489.72 235 238 247
-2895.55 -5948.75 4474.77 234 236 247
-2918.7 -5948.75 4459.71 233 236 246
-2941.77 -5948.75 4444.53 232 236 245
-2964.76 -5948.75 4429.22 231 235 244
-2987.67 -5948.75 4413.8 229 233 242
-3010.5 -5948.75 4398.26 228 232 242
-73.137 -124.619 84.3666 224 232 243
-73.5732 -124.619 83.9865 225 233 244
-74.9046 -126.13 84.6178 224 232 243
-75.342 -126.13 84.2285 224 232 243
-75.7775 -126.13 83.837 223 231 242
-76.2108 -126.13 83.4432 223 231 242
-76.6422 -126.13 83.0472 223 231 243
-77.0714 -126.13 82.649 222 230 243
-3655.13 -5948.75 3879.15 222 230 243
-3675.18 -5948.75 3860.16 222 230 243
-3695.13 -5948.75 3841.07 221 229 242
-3714.99 -5948.75 3821.87 221 229 242
-3734.74 -5948.75 3802.57 221 229 242
-81.2107 -128.677 81.8332 221 229 242
-81.6336 -128.677 81.4113 220 228 241
-82.0543 -128.677 80.9872 221 229 242
-82.4729 -128.677 80.561 220 228 241
-82.8589 -126.13 76.8458 216 226 238
-83.2559 -126.13 76.4154 217 227 240
-83.6507 -126.13 75.983 218 227 242
-84.0433 -126.13 75.5485 218 226 242
-86.0585 -124.619 71.1385 215 224 239
-86.4259 -124.619 70.6916 215 224 239
-86.7911 -124.619 70.2428 212 221 236
-87.1539 -124.619 69.7922 207 216 231
-87.5143 -124.619 69.3397 202 211 226
-87.8724 -124.619 68.8853 204 212 228
-88.2282 -124.619 68.4291 204 211 227
-88.5815 -124.619 67.971 202 210 226
-88.9325 -124.619 67.5111 202 210 225
-89.2811 -124.619 67.0494 203 212 226
-89.6274 -124.619 66.5859 203 214 228
-89.9712 -124.619 66.1206 204 216 230
-90.3126 -124.619 65.6535 206 218 232
-90.6515 -124.619 65.1847 207 219 233
-92.8317 -127.144 66.0254 206 218 232
-93.1726 -127.144 65.5435 207 219 233
-93.5109 -127.144 65.0599 207 219 234
-93.8468 -127.144 64.5745 209 221 236
-94.1801 -127.144 64.0874 209 221 236
-93.757 -126.13 63.0912 207 220 236
-94.0826 -126.13 62.6045 208 221 237
-485.772 -644.649 312.459 209 221 237
-487.385 -644.649 309.938 208 220 236
-488.984 -644.649 307.409 208 220 236
-454.45 -597.184 282.423 208 219 237
-455.907 -597.184 280.065 207 219 236
-457.352 -597.184 277.699 206 219 235
-495.25 -644.649 297.209 205 220 235
-496.783 -644.649 294.639 204 220 235
-498.303 -644.649 292.06 205 219 235
-226.701 -282.041 111.643 201 216 233
-221.812 -275.26 107.811 200 216 232
-222.367 -275.26 106.66 200 216 232
-222.917 -275.26 105.506 200 216 232
-223.461 -275.26 104.35 200 216 232
-223.998 -275.26 103.191 200 216 232
-230.061 -282.041 104.542 199 215 231
-230.6 -282.041 103.349 199 215 231
-231.132 -282.041 102.152 198 214 230
-231.658 -282.041 100.953 198 214 230
-232.178 -282.041 99.7517 199 215 231
-232.692 -282.041 98.5473 199 215 231
-212.113 -240.099 35.8524 189 196 228
-212.296 -240.099 34.7528 187 192 226
-212.473 -240.099 33.6524 183 187 225
-212.644 -240.099 32.551 179 180 222
-212.81 -240.099 31.4488 174 170 216
-212.97 -240.099 30.3457 165 157 207
-213.125 -240.099 29.2418 157 144 197
-213.273 -240.099 28.1371 146 130 186
-213.416 -240.099 27.0317 135 112 171
-213.553 -240.099 25.9255 121 92 154
-213.685 -240.099 24.8186 107 71 137
-218.098 -244.914 24.1866 93 52 121
-5300.4 -5948.75 560.016 82 37 104
-5303.23 -5948.75 532.546 73 27 88
-5305.91 -5948.75 505.06 65 18 72
-211.503 -237.014 19.0274 62 14 63
-211.599 -237.014 17.9312 60 12 58
-211.689 -237.014 16.8346 58 10 54
-211.774 -237.014 15.7375 57 9 50
-211.852 -237.014 14.64 57 9 47
-211.925 -237.014 13.5421 57 10 43
-211.993 -237.014 12.4438 56 11 39
-1518.28 -1694.57 2.48419 45 10 20
-1518.28 -1694.57 -5.38251 44 10 20
-1518.23 -1694.57 -13.2494 44 11 20
-1298.04 -1448.9 -18.0546 44 11 20
-1297.93 -1448.9 -24.7799 43 11 20
-1297.79 -1448.9 -31.5049 43 11 19
-1297.6 -1448.9 -38.2286 43 10 19
-1297.39 -1448.9 -44.9517 42 10 18
-1070.19 -1195.4 -42.6325 42 10 18
-1069.96 -1195.4 -48.1771 41 10 17
-1296.53 -1448.9 -65.1126 41 10 16
-5316.51 -5948.75 -377.595 41 10 16
-5314.48 -5948.75 -405.136 40 10 16
-5312.31 -5948.75 -432.668 39 10 15
-5309.99 -5948.75 -460.187 38 9 15
-5307.54 -5948.75 -487.695 37 9 14
-5304.94 -5948.75 -515.189 37 9 14
-5302.2 -5948.75 -542.669 38 10 15
-5299.32 -5948.75 -570.135 38 10 15
-5296.29 -5948.75 -597.585 38 10 15
-5293.12 -5948.75 -625.019 37 10 15
-5289.82 -5948.75 -652.436 37 10 15
-5286.36 -5948.75 -679.837 37 10 15
-5282.77 -5948.75 -707.218 37 10 15
113.363 -125.214 0 45 11 15
113.361 -125.214 0.587381 44 11 15
113.357 -125.214 1.17475 43 11 15
111.98 -123.701 1.7408 44 11 15
111.97 -123.701 2.32099 45 10 14
111.956 -123.701 2.90112 46 11 16
111.939 -123.701 3.48117 47 11 17
111.92 -123.701 4.06113 47 10 17
111.897 -123.701 4.64098 47 10 17
111.872 -123.701 5.22071 47 10 17
3173.82 -3612.2 788.566 204 212 238
5224.76 -5954.16 1326.92 204 215 238
3165.48 -3612.2 821.413 205 217 237
3161.18 -3612.2 837.803 206 217 236
3156.8 -3612.2 854.172 206 217 236
3152.33 -3612.2 870.517 207 218 236
3147.78 -3612.2 886.839 209 219 235
5180.99 -5954.16 1488.68 209 220 235
5173.21 -5954.16 1515.51 209 221 235
5165.29 -5954.16 1542.29 209 221 235
5157.23 -5954.16 1569.04 209 221 236
5149.03 -5954.16 1595.74 209 221 237
3118.69 -3612.2 984.255 209 221 236
3113.55 -3612.2 1000.4 210 222 235
3108.32 -3612.2 1016.52 209 223 235
3103.02 -3612.2 1032.61 210 223 235
5105.96 -5954.16 1728.58 210 223 236
5096.94 -5954.16 1755.02 211 223 237
5087.77 -5954.16 1781.4 211 223 237
5078.48 -5954.16 1807.74 211 223 237
5069.04 -5954.16 1834.03 212 224 236
5059.47 -5954.16 1860.27 212 224 237
5049.76 -5954.16 1886.46 213 225 239
5039.92 -5954.16 1912.6 213 225 237
5029.94 -5954.16 1938.69 213 225 237
5019.83 -5954.16 1964.72 214 224 236
5009.58 -5954.16 1990.71 214 224 236
4999.2 -5954.16 2016.64 214 224 236
4988.69 -5954.16 2042.51 215 225 237
4978.04 -5954.16 2068.33 215 225 237
4967.25 -5954.16 2094.1 215 225 237
4956.33 -5954.16 2119.81 215 225 237
4945.28 -5954.16 2145.46 216 226 238
4934.1 -5954.16 2171.06 217 227 239
4922.79 -5954.16 2196.59 217 227 239
4911.34 -5954.16 2222.07 217 227 239
4899.76 -5954.16 2247.49 217 227 239
4888.05 -5954.16 2272.85 218 228 240
4876.21 -5954.16 2298.14 218 228 240
4864.23 -5954.16 2323.38 218 228 240
4852.13 -5954.16 2348.55 218 228 239
4839.9 -5954.16 2373.66 219 228 239
4827.53 -5954.16 2398.7 219 228 238
4815.04 -5954.16 2423.69 220 228 239
4802.42 -5954.16 2448.6 220 228 239
4789.66 -5954.16 2473.45 220 228 239
4776.78 -5954.16 2498.24 221 229 240
2890.03 -3612.2 1530.6 221 229 240
2882.06 -3612.2 1545.55 221 229 240
2874.01 -3612.2 1560.46 221 229 240
2865.89 -3612.2 1575.33 221 229 240
2857.69 -3612.2 1590.16 221 230 241
2849.41 -3612.2 1604.95 221 231 241
2841.06 -3612.2 1619.69 222 230 241
4669.15 -5954.16 2694.04 222 230 241
4655.13 -5954.16 2718.2 223 231 241
4640.98 -5954.16 2742.28 223 232 241
4626.71 -5954.16 2766.29 223 232 241
4612.32 -5954.16 2790.23 224 233 242
4597.8 -5954.16 2814.09 225 232 242
4583.16 -5954.16 2837.87 225 232 242
4568.39 -5954.16 2861.58 225 232 242
4553.5 -5954.16 2885.21 226 232 243
4538.49 -5954.16 2908.77 228 232 244
4523.36 -5954.16 2932.25 226 232 243
4508.11 -5954.16 2955.64 226 233 243
4492.73 -5954.16 2978.96 227 234 244
4477.23 -5954.16 3002.2 227 234 244
4461.62 -5954.16 3025.36 228 235 245
4445.88 -5954.16 3048.44 228 235 245
4430.03 -5954.16 3071.43 228 235 244
4414.05 -5954.16 3094.34 228 235 244
4397.96 -5954.16 3117.17 228 235 243
4381.75 -5954.16 3139.92 228 235 243
4365.42 -5954.16 3162.58 228 235 243
4348.98 -5954.16 3185.16 229 236 244
4332.42 -5954.16 3207.65 230 236 244
4315.74 -5954.16 3230.05 231 236 245
4298.94 -5954.16 3252.37 232 236 245
4282.03 -5954.16 3274.6 232 236 245
4265.01 -5954.16 3296.75 232 236 245
4247.87 -5954.16 3318.8 232 236 245
4230.62 -5954.16 3340.77 232 236 245
4213.25 -5954.16 3362.64 233 237 246
4195.77 -5954.16 3384.43 234 237 246
4178.18 -5954.16 3406.12 233 237 246
4160.47 -5954.16 3427.73 233 238 245
4142.66 -5954.16 3449.24 233 238 244
4124.73 -5954.16 3470.65 234 239 245
4106.69 -5954.16 3491.98 234 239 245
4088.54 -5954.16 3513.21 234 239 245
4070.28 -5954.16 3534.35 234 239 245
4051.92 -5954.16 3555.39 235 239 246
4033.44 -5954.16 3576.34 235 240 246
4014.86 -5954.16 3597.19 236 239 246
3996.16 -5954.16 3617.94 236 239 246
3977.36 -5954.16 3638.6 236 239 246
3958.46 -5954.16 3659.16 236 239 246
3939.44 -5954.16 3679.62 237 240 247
3920.33 -5954.16 3699.98 237 240 247
3901.1 -5954.16 3720.25 238 241 248
3881.77 -5954.16 3740.41 238 241 249
3862.34 -5954.16 3760.47 238 241 250
3842.8 -5954.16 3780.44 238 241 249
3823.17 -5954.16 3800.3 238 241 248
3803.42 -5954.16 3820.05 238 241 248
3783.58 -5954.16 3839.71 238 241 248
3763.63 -5954.16 3859.26 238 241 247
3743.59 -5954.16 3878.71 239 242 247
3723.44 -5954.16 3898.06 238 243 247
3703.19 -5954.16 3917.3 238 243 247
3682.84 -5954.16 3936.43 239 242 247
3662.4 -5954.16 3955.46 239 242 247
3641.85 -5954.16 3974.39 239 242 247
3621.21 -5954.16 3993.2 240 243 248
3600.47 -5954.16 4011.91 240 243 248
3579.64 -5954.16 4030.51 240 243 248
3558.71 -5954.16 4049.01 240 243 248
3537.68 -5954.16 4067.39 241 244 249
3516.56 -5954.16 4085.67 241 244 249
3495.34 -5954.16 4103.83 241 244 249
3474.03 -5954.16 4121.89 242 244 249
3452.62 -5954.16 4139.83 242 244 249
3431.13 -5954.16 4157.67 241 244 249
3409.54 -5954.16 4175.39 243 245 250
3387.86 -5954.16 4193 242 245 250
3366.09 -5954.16 4210.5 242 245 250
3344.23 -5954.16 4227.88 242 246 249
3322.27 -5954.16 4245.15 242 246 249
3300.23 -5954.16 4262.31 242 246 249
3278.1 -5954.16 4279.35 243 247 250
3255.89 -5954.16 4296.28 243 247 250
3233.58 -5954.16 4313.09 243 247 250
3211.19 -5954.16 4329.79 243 247 250
3188.71 -5954.16 4346.37 243 247 250
3166.15 -5954.16 4362.83 244 247 250
3143.5 -5954.16 4379.18 245 248 251
3120.77 -5954.16 4395.41 245 247 251
3097.95 -5954.16 4411.52 245 246 250
3075.05 -5954.16 4427.51 245 246 250
3052.07 -5954.16 4443.39 246 247 251
3029.01 -5954.16 4459.14 246 247 251
3005.86 -5954.16 4474.78 246 247 251
2982.64 -5954.16 4490.29 246 247 251
2959.33 -5954.16 4505.69 246 247 251
2935.94 -5954.16 4520.96 246 247 251
2912.48 -5954.16 4536.11 246 247 251
2888.94 -5954.16 4551.14 247 248 252
2865.32 -5954.16 4566.05 247 248 252
2841.62 -5954.16 4580.83 247 248 252
2817.85 -5954.16 4595.5 247 248 252
2794 -5954.16 4610.03 247 248 252
2770.07 -5954.16 4624.45 247 248 252
2746.08 -5954.16 4638.74 247 248 252
2722 -5954.16 4652.91 247 248 252
2697.86 -5954.16 4666.95 247 248 252
2673.64 -5954.16 4680.86 247 248 252
2649.35 -5954.16 4694.65 247 248 252
2624.99 -5954.16 4708.32 247 248 252
2600.56 -5954.16 4721.86 248 249 253
2576.06 -5954.16 4735.27 248 249 253
2551.49 -5954.16 4748.55 248 249 253
2526.85 -5954.16 4761.71 248 249 253
2502.14 -5954.16 4774.74 248 249 253
2477.37 -5954.16 4787.64 248 249 253
2452.53 -5954.16 4800.41 248 249 253
2427.62 -5954.16 4813.05 248 249 254
2402.65 -5954.16 4825.57 248 249 254
2377.62 -5954.16 4837.95 248 249 253
2352.52 -5954.16 4850.21 249 250 252
2327.36 -5954.16 4862.33 249 250 253
2302.13 -5954.16 4874.32 249 250 254
2276.84 -5954.16 4886.19 249 250 254
2251.5 -5954.16 4897.92 249 250 254
2226.09 -5954.16 4909.52 249 250 254
2200.62 -5954.16 4920.99 249 250 254
2175.09 -5954.16 4932.32 250 251 255
2149.51 -5954.16 4943.53 250 251 255
2123.86 -5954.16 4954.6 249 250 254
2098.16 -5954.16 4965.54 250 251 253
2072.41 -5954.16 4976.34 250 251 253
2046.59 -5954.16 4987.01 250 251 253
2020.73 -5954.16 4997.55 250 251 253
1994.81 -5954.16 5007.95 250 251 253
1968.83 -5954.16 5018.22 250 251 253
1942.8 -5954.16 5028.36 251 252 254
1916.72 -5954.16 5038.35 251 252 254
1890.59 -5954.16 5048.22 251 252 254
1864.41 -5954.16 5057.95 250 251 253
1838.18 -5954.16 5067.54 251 252 254
1811.89 -5954.16 5077 251 252 254
1785.56 -5954.16 5086.32 251 252 254
1759.19 -5954.16 5095.5 251 252 254
1732.76 -5954.16 5104.55 251 252 254
1706.29 -5954.16 5113.46 251 252 254
1679.77 -5954.16 5122.23 251 252 254
1653.21 -5954.16 5130.86 251 252 254
1626.6 -5954.16 5139.36 251 252 254
1599.95 -5954.16 5147.72 251 252 254
1573.25 -5954.16 5155.94 251 252 254
1546.52 -5954.16 5164.02 251 252 254
1519.74 -5954.16 5171.97 251 252 254
1492.92 -5954.16 5179.77 251 252 254
1466.06 -5954.16 5187.44 252 252 254
1439.17 -5954.16 5194.96 252 252 254
1412.23 -5954.16 5202.35 252 252 254
1385.25 -5954.16 5209.6 253 253 255
1358.24 -5954.16 5216.71 252 253 255
1331.19 -5954.16 5223.67 252 253 255
1304.11 -5954.16 5230.5 252 253 255
1276.99 -5954.16 5237.19 252 253 255
1249.84 -5954.16 5243.73 252 253 255
1222.65 -5954.16 5250.14 252 253 255
1195.43 -5954.16 5256.4 252 253 255
1168.18 -5954.16 5262.53 252 253 255
1140.9 -5954.16 5268.51 252 253 255
1113.58 -5954.16 5274.35 252 253 255
1086.24 -5954.16 5280.05 252 253 255
1058.87 -5954.16 5285.61 251 252 254
1031.47 -5954.16 5291.02 252 253 255
1004.04 -5954.16 5296.3 252 253 255
976.581 -5954.16 5301.43 251 252 254
949.099 -5954.16 5306.42 252 253 255
921.591 -5954.16 5311.26 252 253 255
894.059 -5954.16 5315.97 252 253 255
866.503 -5954.16 5320.53 252 253 255
838.923 -5954.16 5324.95 252 253 255
811.322 -5954.16 5329.22 252 253 255
783.698 -5954.16 5333.35 251 252 254
756.052 -5954.16 5337.34 251 252 254
728.387 -5954.16 5341.19 250 251 254
700.703 -5954.16 5344.89 250 251 254
672.999 -5954.16 5348.45 251 252 254
645.278 -5954.16 5351.87 251 252 254
617.539 -5954.16 5355.14 251 252 254
589.783 -5954.16 5358.26 251 252 254
562.012 -5954.16 5361.25 251 252 254
534.225 -5954.16 5364.09 251 252 254
506.424 -5954.16 5366.78 251 252 254
478.61 -5954.16 5369.34 252 253 255
450.783 -5954.16 5371.74 252 253 255
422.944 -5954.16 5374.01 252 253 255
395.093 -5954.16 5376.13 251 252 254
367.232 -5954.16 5378.1 251 252 254
339.361 -5954.16 5379.93 251 252 254
311.48 -5954.16 5381.62 251 252 254
283.591 -5954.16 5383.16 251 252 254
255.695 -5954.16 5384.56 251 252 254
227.792 -5954.16 5385.81 251 252 254
199.883 -5954.16 5386.92 251 252 254
171.968 -5954.16 5387.88 251 252 254
144.049 -5954.16 5388.7 251 252 254
116.126 -5954.16 5389.37 251 252 254
88.1996 -5954.16 5389.9 251 252 254
60.2711 -5954.16 5390.29 251 252 254
32.341 -5954.16 5390.53 251 252 254
4.41001 -5954.16 5390.62 251 252 254
-23.5211 -5954.16 5390.57 251 252 254
-51.4515 -5954.16 5390.38 251 252 254
-79.3806 -5954.16 5390.04 251 252 254
-107.308 -5954.16 5389.56 251 252 254
-135.232 -5954.16 5388.93 251 252 254
-163.153 -5954.16 5388.16 251 252 254
-191.069 -5954.16 5387.24 251 252 254
-218.98 -5954.16 5386.18 251 252 254
-246.885 -5954.16 5384.97 251 252 254
-274.783 -5954.16 5383.62 251 252 254
-302.674 -5954.16 5382.12 251 252 254
-330.557 -5954.16 5380.48 251 252 254
-358.431 -5954.16 5378.7 251 252 254
-386.296 -5954.16 5376.77 251 252 254
-414.15 -5954.16 5374.69 251 252 254
-441.993 -5954.16 5372.48 251 252 254
-469.824 -5954.16 5370.11 251 252 254
-497.643 -5954.16 5367.61 250 251 253
-525.448 -5954.16 5364.96 250 251 253
-553.239 -5954.16 5362.16 250 251 253
-581.015 -5954.16 5359.22 250 251 253
-608.776 -5954.16 5356.14 251 252 254
-636.52 -5954.16 5352.91 250 251 253
-664.247 -5954.16 5349.54 250 251 253
-691.956 -5954.16 5346.03 250 251 253
-719.647 -5954.16 5342.37 250 251 253
-747.318 -5954.16 5338.57 249 250 252
-774.97 -5954.16 5334.63 249 250 252
-802.6 -5954.16 5330.54 249 250 252
-830.21 -5954.16 5326.31 249 250 252
-857.796 -5954.16 5321.94 249 250 252
-885.36 -5954.16 5317.42 249 250 252
-912.9 -5954.16 5312.76 249 250 252
-940.415 -5954.16 5307.96 249 250 252
-967.905 -5954.16 5303.02 249 250 252
-995.369 -5954.16 5297.93 250 251 254
-1022.81 -5954.16 5292.7 249 250 254
-1050.22 -5954.16 5287.33 249 250 254
-1077.6 -5954.16 5281.82 249 250 254
-1104.95 -5954.16 5276.17 249 250 254
-1132.28 -5954.16 5270.37 249 250 254
-1159.57 -5954.16 5264.43 248 249 253
-1186.83 -5954.16 5258.35 248 249 253
-1214.06 -5954.16 5252.13 248 249 253
-1241.26 -5954.16 5245.77 248 249 253
-1268.42 -5954.16 5239.27 248 249 253
-1295.55 -5954.16 5232.63 248 249 253
-1322.65 -5954.16 5225.84 248 249 253
-1349.71 -5954.16 5218.92 248 249 253
-1376.73 -5954.16 5211.86 248 249 253
-1403.71 -5954.16 5204.65 248 249 253
-1430.66 -5954.16 5197.31 248 249 253
-1457.57 -5954.16 5189.83 247 248 252
-1484.44 -5954.16 5182.21 247 248 252
-1511.28 -5954.16 5174.45 247 248 252
-1538.07 -5954.16 5166.55 247 248 252
-1564.82 -5954.16 5158.51 247 248 252
-1591.52 -5954.16 5150.33 247 248 252
-1618.19 -5954.16 5142.01 247 248 252
-1644.81 -5954.16 5133.56 246 247 251
-1671.39 -5954.16 5124.97 246 247 251
-1697.92 -5954.16 5116.24 246 247 251
-1724.41 -5954.16 5107.37 246 247 251
-1750.85 -5954.16 5098.37 246 247 251
-1777.24 -5954.16 5089.23 246 247 251
-1803.58 -5954.16 5079.95 245 246 250
-1829.88 -5954.16 5070.54 245 246 250
-1856.13 -5954.16 5060.99 245 246 250
-1882.33 -5954.16 5051.31 244 245 249
-1908.48 -5954.16 5041.48 244 245 249
-1934.57 -5954.16 5031.53 245 246 250
-1960.62 -5954.16 5021.44 245 246 250
-1986.61 -5954.16 5011.21 244 245 250
-2012.55 -5954.16 5000.85 244 245 250
-2038.43 -5954.16 4990.35 244 245 250
-2064.26 -5954.16 4979.73 244 245 250
-2090.04 -5954.16 4968.96 244 245 250
-2115.75 -5954.16 4958.07 244 245 250
-2141.42 -5954.16 4947.04 244 245 250
-2167.02 -5954.16 4935.88 244 245 250
-2192.57 -5954.16 4924.58 244 245 250
-2218.05 -5954.16 4913.15 244 245 250
-2243.48 -5954.16 4901.6 243 244 249
-2268.85 -5954.16 4889.91 243 244 249
-2294.15 -5954.16 4878.08 243 244 249
-2319.4 -5954.16 4866.13 243 244 249
-2344.58 -5954.16 4854.05 242 243 248
-2369.7 -5954.16 4841.84 242 243 248
-2394.75 -5954.16 4829.49 242 243 248
-2419.75 -5954.16 4817.02 242 243 248
-2444.67 -5954.16 4804.42 242 243 248
-2469.53 -5954.16 4791.68 241 242 247
-2494.33 -5954.16 4778.83 240 242 247
-2519.06 -5954.16 4765.84 240 242 247
-2543.72 -5954.16 4752.72 239 242 247
-2568.31 -5954.16 4739.48 239 242 247
-2592.83 -5954.16 4726.11 239 242 247
-2617.28 -5954.16 4712.61 239 242 247
-2834.12 -5954.16 4585.48 236 239 248
-2857.84 -5954.16 4570.73 236 239 248
-2881.49 -5954.16 4555.86 236 239 248
-2905.06 -5954.16 4540.87 236 238 248
-2928.54 -5954.16 4525.76 235 237 248
-2951.95 -5954.16 4510.52 233 236 246
-2975.29 -5954.16 4495.17 232 236 245
-2998.54 -5954.16 4479.69 230 234 243
-3021.71 -5954.16 4464.09 227 231 240
-3044.8 -5954.16 4448.38 227 231 240
-71.5896 -123.701 86.1249 227 233 245
-72.0349 -123.701 85.7528 226 232 244
-72.4782 -123.701 85.3784 225 233 244
-72.9196 -123.701 85.0017 225 233 244
-73.3591 -123.701 84.6227 224 232 243
-74.6989 -125.214 85.2715 224 232 243
-75.1397 -125.214 84.8833 224 232 243
-75.5785 -125.214 84.4928 225 233 244
-76.0153 -125.214 84.1001 224 232 243
-76.45 -125.214 83.7051 224 232 243
-76.8827 -125.214 83.3079 223 231 242
-77.3133 -125.214 82.9084 223 231 242
-77.7419 -125.214 82.5067 224 232 243
-78.1683 -125.214 82.1028 223 231 242
-78.5927 -125.214 81.6966 222 230 241
-79.0149 -125.214 81.2883 222 230 241
-79.4351 -125.214 80.8778 221 229 241
-81.4791 -127.764 82.1037 221 229 242
-81.9034 -127.764 81.6804 221 229 242
-82.3256 -127.764 81.2549 221 229 242
-81.7517 -126.229 79.8566 220 228 241
-83.1632 -127.764 80.3974 219 228 240
-83.1189 -125.214 77.0869 219 226 242
-83.5172 -125.214 76.6552 219 227 242
-83.9133 -125.214 76.2215 219 227 242
-84.3071 -125.214 75.7856 219 226 241
-85.3855 -126.229 75.9588 219 226 242
-86.3198 -123.701 71.3544 216 225 240
-86.6883 -123.701 70.9062 213 222 237
-87.0546 -123.701 70.4561 205 213 228
-87.4185 -123.701 70.0041 190 197 213
-87.78 -123.701 69.5502 189 196 212
-88.1392 -123.701 69.0944 191 198 214
-88.496 -123.701 68.6368 194 201 217
-88.8505 -123.701 68.1774 194 201 216
-89.2025 -123.701 67.7161 192 200 213
-90.6471 -125.214 68.0753 190 200 213
-89.8995 -123.701 66.7881 190 202 214
-90.2443 -123.701 66.3214 192 204 216
-90.5867 -123.701 65.8529 196 208 221
-90.9267 -123.701 65.3826 199 210 224
-92.3802 -125.214 65.7043 203 215 229
-93.4713 -126.229 65.7536 206 218 232
-93.8107 -126.229 65.2685 209 221 235
-94.1476 -126.229 64.7815 209 222 236
-94.482 -126.229 64.2928 208 222 235
-94.8139 -126.229 63.8024 209 222 237
-94.3779 -125.214 62.801 210 222 238
-570.469 -746.72 362.773 208 220 237
-493.836 -644.297 310.459 209 220 238
-458.9 -596.78 285.189 208 220 237
-460.371 -596.78 282.807 207 220 236
-498.602 -644.297 302.745 207 220 236
-500.164 -644.297 300.158 207 220 236
-501.712 -644.297 297.562 207 220 236
-503.248 -644.297 294.958 206 219 235
-227.291 -281.294 114.875 203 216 233
-227.883 -281.294 113.696 204 217 234
-222.955 -274.506 109.798 203 217 233
-223.521 -274.506 108.642 202 217 233
-224.081 -274.506 107.482 201 217 233
-224.635 -274.506 106.32 201 217 233
-225.183 -274.506 105.154 200 216 233
-225.725 -274.506 103.986 200 216 232
-231.856 -281.294 105.357 200 216 232
-232.399 -281.294 104.155 199 215 231
-232.935 -281.294 102.949 199 215 231
-233.465 -281.294 101.741 200 216 232
-233.99 -281.294 100.53 200 216 232
-234.507 -281.294 99.316 200 216 232
-235.019 -281.294 98.0997 199 215 231
-235.524 -281.294 96.8806 198 214 230
-213.812 -239.307 35.001 187 195 230
-213.99 -239.307 33.8927 184 190 228
-214.163 -239.307 32.7835 181 184 226
-214.33 -239.307 31.6734 176 175 221
-214.491 -239.307 30.5624 169 164 213
-211.877 -236.219 29.0706 161 153 205
-212.025 -236.219 27.9724 153 139 195
-212.167 -236.219 26.8735 142 123 182
-215.079 -239.307 26.1107 130 103 168
-215.211 -239.307 24.9959 117 85 150
-215.338 -239.307 23.8805 102 66 130
-5360.79 -5954.16 566.397 88 49 112
-5363.65 -5954.16 538.614 76 33 95
-212.9 -236.219 20.2655 68 21 82
-213.002 -236.219 19.1621 65 16 75
-213.098 -236.219 18.0582 63 12 68
-213.189 -236.219 16.9538 62 9 62
-213.274 -236.219 15.849 61 9 56
-213.353 -236.219 14.7437 58 10 48
-213.427 -236.219 13.638 56 11 41
-213.494 -236.219 12.532 54 12 35
-216.348 -239.307 11.575 53 12 33
-1312 -1449.42 -25.0485 44 10 19
-1311.85 -1449.42 -31.8463 42 9 18
-1311.67 -1449.42 -38.643 42 9 18
-924.589 -1021.86 -32.035 42 9 18
-924.411 -1021.86 -36.8251 42 9 18
-1081.39 -1195.64 -48.6918 42 10 18
-1081.12 -1195.64 -54.2943 42 10 17
-5378.99 -5954.16 -354.031 40 10 15
-5377.08 -5954.16 -381.897 39 10 15
-5375.03 -5954.16 -409.752 39 10 15
-5372.83 -5954.16 -437.598 39 10 15
-5370.5 -5954.16 -465.43 39 11 16
-5368.01 -5954.16 -493.251 39 10 15
-5365.38 -5954.16 -521.059 39 10 15
-5362.61 -5954.16 -548.852 38 9 14
-5359.7 -5954.16 -576.631 38 10 15
-5356.64 -5954.16 -604.393 38 10 15
-5353.43 -5954.16 -632.141 37 10 15
-5350.09 -5954.16 -659.87 37 10 15
-5346.59 -5954.16 -687.583 37 9 14
-5342.96 -5954.16 -715.276 37 9 14
113.708 -124.295 0 45 12 15
113.707 -124.295 0.589169 46 11 15
113.702 -124.295 1.17832 45 11 16
112.309 -122.781 1.74592 45 11 16
112.299 -122.781 2.32782 46 11 17
112.285 -122.781 2.90965 46 11 18
112.269 -122.781 3.49141 47 11 17
112.249 -122.781 4.07308 47 10 17
112.227 -122.781 4.65463 48 10 17
112.201 -122.781 5.23606 49 10 18
3213.33 -3614.69 780.727 205 211 239
3209.25 -3614.69 797.367 206 213 238
3205.07 -3614.69 813.984 206 215 238
3200.81 -3614.69 830.58 206 218 236
3196.46 -3614.69 847.154 206 219 235
3192.03 -3614.69 863.705 207 218 234
3187.51 -3614.69 880.232 207 219 234
3182.91 -3614.69 896.736 208 220 234
5239.41 -5958.95 1505.47 209 221 235
5231.54 -5958.95 1532.6 209 221 237
5223.53 -5958.95 1559.68 209 221 236
5215.37 -5958.95 1586.73 209 221 235
5207.08 -5958.95 1613.73 209 221 236
3153.5 -3614.69 995.24 210 222 236
3148.3 -3614.69 1011.57 210 222 236
3143.02 -3614.69 1027.86 210 222 236
3137.65 -3614.69 1044.14 211 223 237
5163.53 -5958.95 1748.07 211 223 237
5154.41 -5958.95 1774.8 211 223 237
5145.14 -5958.95 1801.49 211 223 237
5135.74 -5958.95 1828.12 212 224 237
5126.2 -5958.95 1854.71 213 223 236
5116.52 -5958.95 1881.24 213 223 235
5106.7 -5958.95 1907.73 214 224 236
5096.75 -5958.95 1934.16 215 225 237
5086.66 -5958.95 1960.55 214 225 237
5076.43 -5958.95 1986.88 212 224 236
5066.07 -5958.95 2013.15 214 225 237
5055.57 -5958.95 2039.38 215 225 237
5044.93 -5958.95 2065.54 216 226 238
5034.16 -5958.95 2091.66 216 226 238
5023.26 -5958.95 2117.71 216 226 238
5012.22 -5958.95 2143.71 216 226 238
5001.04 -5958.95 2169.65 216 226 238
4989.73 -5958.95 2195.54 217 227 239
4978.29 -5958.95 2221.36 217 227 239
4966.72 -5958.95 2247.13 217 227 239
4955.01 -5958.95 2272.83 218 227 239
4943.16 -5958.95 2298.47 218 227 240
4931.19 -5958.95 2324.05 219 228 240
4919.08 -5958.95 2349.57 220 228 239
4906.84 -5958.95 2375.03 220 228 239
4894.47 -5958.95 2400.42 219 227 238
4881.96 -5958.95 2425.75 220 228 239
4869.33 -5958.95 2451.01 220 228 239
4856.56 -5958.95 2476.21 221 229 240
4843.67 -5958.95 2501.34 221 229 240
2930.26 -3614.69 1532.52 221 229 240
2922.28 -3614.69 1547.68 222 230 241
2914.23 -3614.69 1562.8 222 230 241
4790.79 -5958.95 2601.19 222 230 241
2897.87 -3614.69 1592.91 222 230 241
2889.58 -3614.69 1607.91 223 231 242
2881.21 -3614.69 1622.86 222 232 242
4735.85 -5958.95 2699.91 222 232 242
4721.8 -5958.95 2724.42 223 232 242
4707.62 -5958.95 2748.84 224 232 242
4693.31 -5958.95 2773.2 224 232 242
4678.88 -5958.95 2797.48 225 232 242
4664.32 -5958.95 2821.69 225 232 242
4649.64 -5958.95 2845.82 226 233 243
4634.83 -5958.95 2869.87 226 233 243
4619.9 -5958.95 2893.85 226 233 243
4604.84 -5958.95 2917.75 226 233 243
4589.67 -5958.95 2941.57 227 233 244
4574.36 -5958.95 2965.31 228 233 244
4558.94 -5958.95 2988.97 227 234 244
4543.39 -5958.95 3012.55 227 234 244
4527.72 -5958.95 3036.05 228 235 245
4511.93 -5958.95 3059.47 229 236 246
4496.01 -5958.95 3082.81 229 236 246
4479.98 -5958.95 3106.06 229 236 244
4463.82 -5958.95 3129.23 229 236 244
4447.55 -5958.95 3152.32 230 237 245
4431.16 -5958.95 3175.32 229 236 244
4414.65 -5958.95 3198.24 229 236 244
4398.02 -5958.95 3221.07 229 236 244
4381.27 -5958.95 3243.82 230 236 245
4364.4 -5958.95 3266.47 232 236 245
4347.42 -5958.95 3289.04 232 236 245
4330.32 -5958.95 3311.53 233 237 246
4313.1 -5958.95 3333.92 233 237 246
4295.77 -5958.95 3356.22 233 237 246
4278.32 -5958.95 3378.43 233 237 246
4260.76 -5958.95 3400.56 234 237 246
4243.08 -5958.95 3422.59 235 238 247
4225.29 -5958.95 3444.53 235 238 247
4207.38 -5958.95 3466.37 234 238 246
4189.37 -5958.95 3488.13 234 239 245
4171.24 -5958.95 3509.79 234 239 245
4153 -5958.95 3531.35 235 238 245
4134.64 -5958.95 3552.82 236 239 246
4116.18 -5958.95 3574.2 236 239 246
4097.6 -5958.95 3595.48 236 239 246
4078.92 -5958.95 3616.66 236 239 246
4060.13 -5958.95 3637.75 237 240 247
4041.22 -5958.95 3658.74 237 240 247
4022.21 -5958.95 3679.63 237 240 247
4003.09 -5958.95 3700.42 237 240 247
3983.86 -5958.95 3721.11 237 240 247
3964.53 -5958.95 3741.7 238 241 248
3945.09 -5958.95 3762.19 238 241 248
3925.54 -5958.95 3782.59 239 242 249
3905.89 -5958.95 3802.87 238 241 249
3886.13 -5958.95 3823.06 238 241 248
3866.27 -5958.95 3843.15 238 241 248
3846.31 -5958.95 3863.13 238 241 247
3826.24 -5958.95 3883 239 242 247
3806.07 -5958.95 3902.78 239 242 247
3785.8 -5958.95 3922.45 239 242 247
3765.42 -5958.95 3942.01 239 242 247
3744.95 -5958.95 3961.47 238 243 247
3724.37 -5958.95 3980.82 239 243 248
3703.69 -5958.95 4000.06 240 243 248
3682.92 -5958.95 4019.2 240 243 248
3662.04 -5958.95 4038.23 240 243 248
3641.07 -5958.95 4057.15 240 243 248
3620 -5958.95 4075.96 241 244 249
3598.83 -5958.95 4094.66 241 244 249
3577.57 -5958.95 4113.25 241 244 249
3556.21 -5958.95 4131.73 241 244 249
3534.75 -5958.95 4150.11 241 244 249
3513.2 -5958.95 4168.37 241 244 249
3491.55 -5958.95 4186.51 242 245 250
3469.81 -5958.95 4204.55 242 245 250
3447.98 -5958.95 4222.47 242 245 250
3426.06 -5958.95 4240.28 242 245 250
3404.04 -5958.95 4257.97 242 245 250
3381.93 -5958.95 4275.55 243 246 250
3359.73 -5958.95 4293.02 243 246 249
3337.45 -5958.95 4310.37 243 246 249
3315.07 -5958.95 4327.61 244 246 250
3292.6 -5958.95 4344.72 244 246 250
3270.04 -5958.95 4361.73 245 246 250
3247.4 -5958.95 4378.61 245 246 250
3224.67 -5958.95 4395.38 245 246 250
3201.85 -5958.95 4412.03 245 246 250
3178.95 -5958.95 4428.56 246 247 251
3155.96 -5958.95 4444.97 246 247 251
3132.88 -5958.95 4461.26 246 247 251
3109.73 -5958.95 4477.44 246 247 251
3086.49 -5958.95 4493.49 246 247 251
3063.16 -5958.95 4509.42 246 247 251
3039.75 -5958.95 4525.23 247 248 252
3016.27 -5958.95 4540.92 247 248 252
2992.7 -5958.95 4556.49 247 248 252
2969.05 -5958.95 4571.93 247 248 252
2945.32 -5958.95 4587.26 248 249 253
2921.51 -5958.95 4602.46 248 249 253
2897.62 -5958.95 4617.53 247 248 252
2873.66 -5958.95 4632.48 247 248 252
2849.62 -5958.95 4647.31 247 248 252
2825.5 -5958.95 4662.01 248 249 253
2801.31 -5958.95 4676.59 248 249 253
2777.04 -5958.95 4691.04 248 249 253
2752.7 -5958.95 4705.37 248 249 253
2728.28 -5958.95 4719.57 248 249 253
2703.79 -5958.95 4733.64 248 249 253
2679.22 -5958.95 4747.59 248 249 253
2654.59 -5958.95 4761.41 248 249 253
2629.88 -5958.95 4775.1 248 249 253
2605.1 -5958.95 4788.66 249 250 254
2580.26 -5958.95 4802.09 249 250 254
2555.34 -5958.95 4815.4 249 250 254
2530.36 -5958.95 4828.57 249 250 254
2505.3 -5958.95 4841.62 249 250 254
2480.18 -5958.95 4854.54 249 250 254
2455 -5958.95 4867.32 249 250 254
2429.74 -5958.95 4879.98 249 250 255
2404.43 -5958.95 4892.5 249 250 254
2379.04 -5958.95 4904.89 249 250 254
2353.6 -5958.95 4917.15 249 250 253
2328.09 -5958.95 4929.28 249 250 254
2302.52 -5958.95 4941.28 249 250 254
2276.88 -5958.95 4953.14 249 250 254
2251.19 -5958.95 4964.88 249 250 254
2225.43 -5958.95 4976.47 250 251 255
2199.62 -5958.95 4987.94 250 251 254
2173.74 -5958.95 4999.27 250 251 253
2147.81 -5958.95 5010.46 250 251 253
2121.82 -5958.95 5021.52 250 251 253
2095.77 -5958.95 5032.45 250 251 253
2069.67 -5958.95 5043.24 250 251 253
2043.51 -5958.95 5053.9 250 251 253
2017.3 -5958.95 5064.42 250 251 253
1991.03 -5958.95 5074.8 250 251 253
1964.71 -5958.95 5085.05 251 252 254
1938.33 -5958.95 5095.16 251 252 254
1911.91 -5958.95 5105.14 251 252 254
1885.43 -5958.95 5114.98 251 252 254
1858.9 -5958.95 5124.68 251 252 254
1832.32 -5958.95 5134.24 251 252 254
1805.7 -5958.95 5143.67 251 252 254
1779.02 -5958.95 5152.95 251 252 254
1752.3 -5958.95 5162.1 251 252 254
1725.53 -5958.95 5171.11 251 252 254
1698.71 -5958.95 5179.98 252 253 255
1671.85 -5958.95 5188.71 252 253 255
1644.94 -5958.95 5197.31 251 252 254
1617.99 -5958.95 5205.76 252 253 255
1590.99 -5958.95 5214.07 252 253 255
1563.96 -5958.95 5222.25 252 253 255
1536.88 -5958.95 5230.28 251 252 254
1509.76 -5958.95 5238.17 251 252 254
1482.59 -5958.95 5245.93 252 252 254
1455.39 -5958.95 5253.54 252 252 254
1428.15 -5958.95 5261.01 253 253 255
1400.87 -5958.95 5268.34 253 253 255
1373.56 -5958.95 5275.53 253 253 255
1346.2 -5958.95 5282.57 252 253 255
1318.81 -5958.95 5289.48 252 253 255
1291.39 -5958.95 5296.24 252 253 255
1263.93 -5958.95 5302.86 252 253 255
1236.44 -5958.95 5309.34 252 253 255
1208.91 -5958.95 5315.67 252 253 255
1181.35 -5958.95 5321.86 252 253 255
1153.76 -5958.95 5327.91 252 253 255
1126.14 -5958.95 5333.82 251 253 255
1098.49 -5958.95 5339.58 250 254 255
1070.81 -5958.95 5345.2 251 252 254
1043.1 -5958.95 5350.68 252 253 255
1015.36 -5958.95 5356.01 252 253 255
987.592 -5958.95 5361.2 252 253 255
959.8 -5958.95 5366.25 252 253 255
931.983 -5958.95 5371.15 252 253 255
904.14 -5958.95 5375.91 252 253 255
876.273 -5958.95 5380.52 252 253 255
848.383 -5958.95 5384.99 252 253 255
820.469 -5958.95 5389.31 252 253 255
792.534 -5958.95 5393.49 251 252 254
764.577 -5958.95 5397.52 250 251 253
736.6 -5958.95 5401.41 250 251 253
708.603 -5958.95 5405.16 249 250 252
680.587 -5958.95 5408.76 249 250 252
652.553 -5958.95 5412.21 250 251 253
624.502 -5958.95 5415.52 250 251 253
596.433 -5958.95 5418.68 250 251 253
568.349 -5958.95 5421.7 251 252 254
540.249 -5958.95 5424.57 251 252 254
512.134 -5958.95 5427.3 250 251 253
484.006 -5958.95 5429.88 251 252 254
455.866 -5958.95 5432.31 252 253 255
427.712 -5958.95 5434.6 251 252 254
399.548 -5958.95 5436.75 252 253 255
371.372 -5958.95 5438.74 252 253 255
343.187 -5958.95 5440.59 252 253 255
314.992 -5958.95 5442.3 251 252 254
286.789 -5958.95 5443.86 251 252 254
258.578 -5958.95 5445.27 252 253 254
230.361 -5958.95 5446.54 252 253 255
202.137 -5958.95 5447.66 252 253 255
173.907 -5958.95 5448.63 252 253 255
145.674 -5958.95 5449.46 252 253 255
117.436 -5958.95 5450.14 252 253 255
89.194 -5958.95 5450.68 252 253 255
60.9507 -5958.95 5451.07 251 252 254
32.7056 -5958.95 5451.31 251 252 254
4.45974 -5958.95 5451.4 251 252 254
-23.7863 -5958.95 5451.35 251 252 254
-52.0317 -5958.95 5451.16 252 253 255
-80.2756 -5958.95 5450.82 251 252 254
-108.517 -5958.95 5450.33 251 252 254
-136.757 -5958.95 5449.69 251 252 254
-164.992 -5958.95 5448.91 251 252 254
-193.223 -5958.95 5447.98 251 252 254
-221.449 -5958.95 5446.91 251 252 254
-249.668 -5958.95 5445.69 251 252 254
-277.881 -5958.95 5444.32 251 252 254
-306.087 -5958.95 5442.81 251 252 254
-334.284 -5958.95 5441.15 251 252 254
-362.473 -5958.95 5439.34 251 252 254
-390.652 -5958.95 5437.39 251 252 254
-418.82 -5958.95 5435.29 251 252 254
-446.977 -5958.95 5433.05 251 252 254
-475.122 -5958.95 5430.66 251 252 254
-503.254 -5958.95 5428.13 251 252 254
-531.372 -5958.95 5425.45 251 252 254
-559.477 -5958.95 5422.62 250 251 253
-587.566 -5958.95 5419.65 250 251 253
-615.64 -5958.95 5416.53 250 251 253
-643.697 -5958.95 5413.27 250 251 253
-671.737 -5958.95 5409.86 251 252 254
-699.758 -5958.95 5406.31 251 252 254
-727.761 -5958.95 5402.61 250 251 253
-755.745 -5958.95 5398.77 250 251 253
-783.708 -5958.95 5394.78 250 251 253
-811.65 -5958.95 5390.65 249 250 252
-839.571 -5958.95 5386.37 249 250 252
-867.468 -5958.95 5381.95 249 250 252
-895.343 -5958.95 5377.38 249 250 252
-923.193 -5958.95 5372.67 249 250 252
-951.019 -5958.95 5367.81 250 251 253
-978.819 -5958.95 5362.81 250 251 253
-1006.59 -5958.95 5357.67 249 250 254
-1034.34 -5958.95 5352.38 249 250 254
-1062.06 -5958.95 5346.95 249 250 254
-1089.75 -5958.95 5341.37 249 250 254
-1117.41 -5958.95 5335.66 249 250 254
-1145.04 -5958.95 5329.79 250 251 255
-1172.64 -5958.95 5323.79 249 250 254
-1200.21 -5958.95 5317.64 249 250 254
-1227.75 -5958.95 5311.35 249 250 254
-1255.25 -5958.95 5304.92 249 250 254
-1282.72 -5958.95 5298.34 249 250 254
-1310.16 -5958.95 5291.63 248 249 253
-1337.56 -5958.95 5284.77 248 249 253
-1364.92 -5958.95 5277.77 248 249 253
-1392.25 -5958.95 5270.62 248 249 253
-1419.54 -5958.95 5263.34 248 249 253
-1446.79 -5958.95 5255.91 248 249 253
-1474.01 -5958.95 5248.35 248 249 253
-1501.18 -5958.95 5240.64 248 249 253
-1528.32 -5958.95 5232.79 248 249 253
-1555.41 -5958.95 5224.8 248 249 253
-1582.46 -5958.95 5216.67 248 249 253
-1609.47 -5958.95 5208.4 247 248 252
-1636.43 -5958.95 5199.99 247 248 252
-1663.36 -5958.95 5191.44 247 248 252
-1690.23 -5958.95 5182.76 247 248 252
-1717.06 -5958.95 5173.93 247 248 252
-1743.85 -5958.95 5164.96 247 248 252
-1770.59 -5958.95 5155.86 247 248 252
-1797.28 -5958.95 5146.61 247 248 252
-1823.92 -5958.95 5137.23 246 247 251
-1850.51 -5958.95 5127.71 246 247 251
-1877.06 -5958.95 5118.06 246 247 251
-1903.55 -5958.95 5108.26 245 246 250
-1929.99 -5958.95 5098.33 245 246 250
-1956.39 -5958.95 5088.26 245 246 250
-1982.72 -5958.95 5078.06 245 246 250
-2009.01 -5958.95 5067.71 245 246 250
-2035.24 -5958.95 5057.24 245 246 250
-2061.42 -5958.95 5046.62 244 245 249
-2087.54 -5958.95 5035.87 244 245 250
-2113.6 -5958.95 5024.99 244 245 250
-2139.61 -5958.95 5013.97 245 246 251
-2165.56 -5958.95 5002.82 244 245 250
-2191.45 -5958.95 4991.53 244 245 250
-2217.29 -5958.95 4980.11 245 246 251
-2243.06 -5958.95 4968.55 244 245 250
-2268.78 -5958.95 4956.86 244 245 250
-2294.43 -5958.95 4945.04 244 245 250
-2320.02 -5958.95 4933.09 243 244 249
-2345.55 -5958.95 4921 243 244 249
-2371.02 -5958.95 4908.78 243 244 249
-2396.42 -5958.95 4896.43 243 244 249
-2421.76 -5958.95 4883.95 243 244 249
-2447.03 -5958.95 4871.33 243 244 249
-2472.24 -5958.95 4858.59 243 244 249
-2497.38 -5958.95 4845.71 242 243 248
-2522.45 -5958.95 4832.71 242 243 248
-2547.46 -5958.95 4819.57 242 243 248
-2572.4 -5958.95 4806.31 241 243 248
-2597.27 -5958.95 4792.92 240 243 248
-2622.07 -5958.95 4779.39 239 242 247
-2646.79 -5958.95 4765.74 239 242 248
-2671.45 -5958.95 4751.97 239 242 249
-2696.04 -5958.95 4738.06 239 242 249
-2720.55 -5958.95 4724.03 239 242 249
-2890.07 -5958.95 4622.27 237 240 249
-2913.98 -5958.95 4607.23 236 239 248
-2937.81 -5958.95 4592.07 236 239 248
-2961.56 -5958.95 4576.79 235 238 247
-2985.24 -5958.95 4561.38 232 236 245
-3008.83 -5958.95 4545.85 229 233 243
-3032.35 -5958.95 4530.2 226 230 240
-3055.78 -5958.95 4514.43 224 228 237
-3079.13 -5958.95 4498.53 225 230 238
-72.2468 -122.781 86.005 227 234 245
-72.6914 -122.781 85.6295 226 234 245
-73.1341 -122.781 85.2518 225 233 244
-73.5749 -122.781 84.8717 225 233 244
-74.9263 -124.295 85.5311 225 233 244
-75.3684 -124.295 85.1417 224 232 243
-75.8086 -124.295 84.7501 224 232 243
-76.2467 -124.295 84.3561 224 232 243
-76.6828 -124.295 83.9599 224 232 243
-77.1168 -124.295 83.5615 224 232 243
-77.5487 -124.295 83.1608 223 231 242
-77.9786 -124.295 82.7579 223 231 242
-78.4063 -124.295 82.3527 223 231 242
-78.832 -124.295 81.9454 223 231 242
-79.2555 -124.295 81.5358 222 230 241
-79.6769 -124.295 81.124 221 229 240
-81.7409 -126.847 82.3674 221 229 240
-82.59 -126.847 81.5159 221 229 242
-82.0062 -125.311 80.1051 220 228 241
-81.7516 -124.295 79.0328 219 228 240
-83.372 -124.295 77.3216 220 227 243
-83.7715 -124.295 76.8886 220 227 242
-84.1687 -124.295 76.4535 219 227 240
-84.5638 -124.295 76.0164 219 227 240
-84.9565 -124.295 75.5772 219 227 240
-86.0449 -125.311 75.7504 220 228 241
-86.9434 -122.781 71.1148 211 219 235
-87.3107 -122.781 70.6634 197 204 220
-87.6756 -122.781 70.21 191 199 213
-88.0383 -122.781 69.7548 190 198 212
-88.3985 -122.781 69.2977 196 204 217
-88.7564 -122.781 68.8387 193 202 215
-89.1119 -122.781 68.3779 188 197 209
-90.5681 -124.295 68.7527 186 197 209
-90.9231 -124.295 68.2825 183 195 207
-90.1639 -122.781 66.9845 183 195 207
-90.5098 -122.781 66.5165 187 197 211
-90.8532 -122.781 66.0466 193 202 217
-91.1942 -122.781 65.575 200 210 225
-92.6614 -124.295 65.9043 205 217 231
-93.7622 -125.311 65.9583 208 220 235
-94.1027 -125.311 65.4716 209 221 235
-94.4407 -125.311 64.9831 208 221 235
-94.7761 -125.311 64.4929 209 222 236
-95.109 -125.311 64.001 210 222 238
-95.4393 -125.311 63.5073 211 222 239
-576.198 -746.409 366.416 210 222 238
-498.685 -643.885 313.507 209 221 237
-463.346 -596.322 287.952 208 221 237
-229.043 -280.528 115.761 204 217 235
-229.64 -280.528 114.572 204 217 235
-224.654 -273.733 110.635 203 216 233
-225.224 -273.733 109.469 202 217 233
-225.788 -273.733 108.301 202 218 234
-226.346 -273.733 107.129 201 217 234
-226.898 -273.733 105.955 201 216 235
-233.09 -280.528 107.379 201 216 235
-233.643 -280.528 106.17 201 216 234
-234.19 -280.528 104.958 200 216 232
-234.731 -280.528 103.743 200 216 232
-235.265 -280.528 102.525 200 216 232
-235.793 -280.528 101.305 200 216 232
-236.315 -280.528 100.082 199 215 231
-236.831 -280.528 98.856 199 215 231
-237.34 -280.528 97.6275 199 215 231
