ply
format ascii 1.0
element vertex 1425
property float x
property float y
property float z
property uchar red
property uchar green
property uchar blue
end_header
-2368.81 -5106.97 1506.38 64 9 14
-2376.59 -5106.97 1494.08 64 9 14
-2384.3 -5106.97 1481.75 64 9 14
-2391.94 -5106.97 1469.38 64 9 14
-2399.52 -5106.97 1456.96 64 9 14
-2407.04 -5106.97 1444.51 64 9 14
-2414.49 -5106.97 1432.02 64 9 14
-2421.88 -5106.97 1419.49 64 9 14
-2429.2 -5106.97 1406.92 64 9 14
-2436.46 -5106.97 1394.32 64 9 14
-2443.65 -5106.97 1381.67 64 9 14
-2450.78 -5106.97 1368.99 64 9 14
-2457.84 -5106.97 1356.28 64 8 14
-2464.83 -5106.97 1343.52 65 8 13
-2471.76 -5106.97 1330.73 65 8 14
-2478.62 -5106.97 1317.91 65 8 14
-2485.42 -5106.97 1305.05 65 8 14
-2492.15 -5106.97 1292.15 65 8 14
-2498.81 -5106.97 1279.22 65 8 14
-2505.4 -5106.97 1266.26 64 8 13
-2511.93 -5106.97 1253.26 63 8 13
-2518.39 -5106.97 1240.23 63 8 13
-2524.78 -5106.97 1227.16 63 7 13
-2531.11 -5106.97 1214.06 63 6 12
-2617.73 -5106.97 1013.87 64 9 14
-2622.95 -5106.97 1000.3 65 10 15
-2628.1 -5106.97 986.692 66 11 16
-2633.18 -5106.97 973.061 66 11 16
-2638.18 -5106.97 959.405 66 12 17
-2643.12 -5106.97 945.722 66 13 17
-2647.98 -5106.97 932.015 65 14 18
-2652.78 -5106.97 918.282 65 15 18
-1623.51 -3119.94 552.59 65 14 18
-1626.35 -3119.94 544.17 65 14 18
-2666.73 -5106.97 876.937 66 14 18
-2671.24 -5106.97 863.108 66 14 18
-2675.67 -5106.97 849.255 65 14 18
-2680.04 -5106.97 835.38 65 14 17
-144.162 -274.269 44.1176 64 14 17
-144.388 -274.269 43.3701 64 13 17
-147.215 -279.207 43.3888 64 13 16
-147.438 -279.207 42.6254 63 12 16
-147.657 -279.207 41.8609 63 12 15
-147.872 -279.207 41.0953 62 10 14
-148.082 -279.207 40.3285 61 9 13
-148.289 -279.207 39.5607 60 9 13
-145.866 -274.269 38.1057 60 9 13
-143.569 -269.59 36.7122 59 9 13
-143.758 -269.59 35.9678 58 9 13
-143.942 -269.59 35.2224 57 8 12
-146.624 -274.269 35.0745 57 7 12
-146.804 -274.269 34.3144 56 7 11
-146.98 -274.269 33.5532 56 7 11
-144.641 -269.59 32.2318 55 7 11
-143.202 -266.603 31.1331 54 6 11
-143.361 -266.603 30.3907 54 6 11
-143.517 -266.603 29.6475 53 6 12
-143.669 -266.603 28.9034 52 5 11
-143.817 -266.603 28.1587 51 5 10
-143.961 -266.603 27.4131 50 4 10
-144.101 -266.603 26.6668 49 4 9
-144.237 -266.603 25.9198 49 5 9
-144.369 -266.603 25.1721 49 5 9
-144.498 -266.603 24.4237 49 6 9
-144.622 -266.603 23.6747 48 6 10
-144.743 -266.603 22.925 48 6 10
-144.86 -266.603 22.1747 48 6 10
-144.973 -266.603 21.4239 47 5 9
-145.082 -266.603 20.6724 47 5 9
-145.386 -266.603 18.4148 45 4 8
-145.479 -266.603 17.6613 45 3 7
-147.199 -269.59 17.0966 44 3 7
-147.286 -269.59 16.3337 44 4 8
-149.927 -274.269 15.8406 45 4 8
-154.594 -282.656 15.5242 45 5 9
-160.793 -293.842 15.3056 45 5 9
-2786.1 -5106.97 -343.633 35 5 7
-2778.38 -5106.97 -401.3 34 5 7
-2776.27 -5106.97 -415.69 34 5 7
-2774.08 -5106.97 -430.07 34 5 7
-2771.81 -5106.97 -444.437 33 4 6
-2769.47 -5106.97 -458.794 33 4 6
-2767.06 -5106.97 -473.137 33 4 6
89.9321 -161.618 0 39 7 8
89.9309 -161.618 0.465976 40 7 8
89.9272 -161.618 0.93194 40 7 8
89.9212 -161.618 1.39788 41 7 8
89.3907 -160.75 3.24364 42 8 9
89.3727 -160.75 3.70676 42 8 9
88.6344 -159.459 4.13629 43 7 9
88.6118 -159.459 4.59548 43 7 9
88.5868 -159.459 5.05456 43 7 9
88.5594 -159.459 5.51349 44 8 10
88.5296 -159.459 5.97228 44 8 10
88.4975 -159.459 6.43091 44 8 10
88.463 -159.459 6.88937 44 8 10
88.4261 -159.459 7.34764 44 7 9
87.9269 -159.459 11.9175 48 7 11
87.864 -159.459 12.3729 48 7 11
87.7987 -159.459 12.828 47 7 10
87.731 -159.459 13.2828 47 7 9
87.661 -159.459 13.7371 48 8 9
87.5887 -159.459 14.1912 49 8 9
87.514 -159.459 14.6448 49 8 9
93.6127 -171.546 18.6738 52 7 10
93.5146 -171.546 19.1586 52 7 11
93.4141 -171.546 19.6429 53 7 11
93.3111 -171.546 20.1266 53 8 11
93.2056 -171.546 20.6098 54 8 11
93.0975 -171.546 21.0925 54 7 10
92.987 -171.546 21.5746 54 7 9
92.8739 -171.546 22.0561 55 6 9
92.7584 -171.546 22.537 55 6 9
92.6404 -171.546 23.0174 56 6 9
92.5199 -171.546 23.4971 56 6 9
92.3969 -171.546 23.9761 57 7 10
92.2714 -171.546 24.4546 58 8 11
91.3901 -170.144 24.7285 58 8 11
91.2607 -170.144 25.2017 60 7 10
91.1289 -170.144 25.6742 61 6 9
90.9947 -170.144 26.146 62 6 9
94.1762 -176.358 27.5893 62 6 9
2739.83 -5138.57 818.08 62 6 9
93.8853 -176.358 28.5637 62 7 10
93.736 -176.358 29.0498 63 6 9
93.5843 -176.358 29.5351 64 6 9
94.2185 -177.846 30.2729 65 6 10
94.0604 -177.846 30.7607 66 7 11
94.6977 -179.358 31.5132 66 7 11
94.5332 -179.358 32.0035 67 8 12
94.9032 -180.379 32.6778 68 9 13
94.7327 -180.379 33.1691 69 10 14
94.5595 -180.379 33.6595 71 12 16
95.1962 -181.931 34.4429 72 13 17
95.0164 -181.931 34.9357 73 14 18
94.8341 -181.931 35.4276 74 15 18
94.6493 -181.931 35.9185 74 15 18
94.4619 -181.931 36.4084 74 15 17
94.272 -181.931 36.8974 75 16 18
94.6223 -182.981 37.601 76 17 20
2651.73 -5138.57 1069.69 76 17 21
2646.15 -5138.57 1083.41 76 17 21
2640.5 -5138.57 1097.11 75 16 20
2634.78 -5138.57 1110.78 75 16 20
2628.99 -5138.57 1124.41 75 16 19
2623.13 -5138.57 1138.02 75 15 18
2617.2 -5138.57 1151.6 75 14 16
2611.2 -5138.57 1165.14 74 13 15
2605.13 -5138.57 1178.66 73 11 14
2598.98 -5138.57 1192.14 72 11 15
2592.77 -5138.57 1205.59 72 11 15
2586.49 -5138.57 1219.01 70 9 14
2580.14 -5138.57 1232.39 70 9 14
2573.72 -5138.57 1245.74 69 8 13
2567.23 -5138.57 1259.06 68 7 12
2560.67 -5138.57 1272.35 66 7 11
2554.05 -5138.57 1285.6 66 7 11
2547.35 -5138.57 1298.81 65 8 11
2540.59 -5138.57 1312 64 8 11
2533.75 -5138.57 1325.14 65 8 12
2526.85 -5138.57 1338.25 66 8 12
2519.89 -5138.57 1351.33 66 8 12
2512.85 -5138.57 1364.37 65 8 12
2505.75 -5138.57 1377.37 65 9 12
2498.58 -5138.57 1390.33 67 9 12
1521.68 -3138.57 857.094 68 9 13
1517.22 -3138.57 864.967 67 8 12
1512.72 -3138.57 872.817 68 9 13
1508.17 -3138.57 880.643 68 9 13
2461.72 -5138.57 1454.59 67 8 12
2454.15 -5138.57 1467.33 66 8 12
2446.52 -5138.57 1480.02 66 8 12
2438.82 -5138.57 1492.68 67 7 12
2431.05 -5138.57 1505.3 67 7 12
2423.22 -5138.57 1517.87 67 8 12
1475.25 -3138.57 934.753 67 9 12
1470.38 -3138.57 942.385 67 9 13
1465.48 -3138.57 949.991 66 10 13
1460.54 -3138.57 957.571 66 9 13
1455.56 -3138.57 965.126 66 7 13
1450.54 -3138.57 972.655 66 7 13
2366.58 -5138.57 1604.74 66 7 14
2358.23 -5138.57 1616.99 66 7 13
2349.82 -5138.57 1629.18 66 7 12
2341.35 -5138.57 1641.34 66 7 11
2332.82 -5138.57 1653.45 66 7 11
2324.22 -5138.57 1665.51 66 7 11
2315.56 -5138.57 1677.53 66 7 11
2306.83 -5138.57 1689.51 66 7 11
2298.05 -5138.57 1701.44 67 8 12
2289.2 -5138.57 1713.32 68 9 13
2280.29 -5138.57 1725.16 68 9 13
2271.32 -5138.57 1736.95 67 8 12
2262.29 -5138.57 1748.7 67 8 13
2253.2 -5138.57 1760.39 66 8 14
2244.05 -5138.57 1772.05 66 8 14
2234.84 -5138.57 1783.65 67 8 14
2225.57 -5138.57 1795.21 68 9 15
2216.24 -5138.57 1806.71 68 9 15
2206.84 -5138.57 1818.17 69 10 16
2197.39 -5138.57 1829.58 68 9 14
2187.89 -5138.57 1840.94 68 9 13
2178.32 -5138.57 1852.25 68 9 13
2168.69 -5138.57 1863.52 67 8 12
2159.01 -5138.57 1874.73 67 8 12
2149.26 -5138.57 1885.89 67 8 12
2139.46 -5138.57 1897 68 9 13
2129.6 -5138.57 1908.06 69 10 14
2119.69 -5138.57 1919.07 69 10 14
2109.72 -5138.57 1930.03 68 10 15
2099.69 -5138.57 1940.93 67 10 15
2089.6 -5138.57 1951.79 68 10 13
2079.46 -5138.57 1962.59 69 10 13
2069.27 -5138.57 1973.33 69 10 15
2059.01 -5138.57 1984.03 69 10 16
2048.71 -5138.57 1994.67 70 11 16
2038.34 -5138.57 2005.26 71 12 16
2027.93 -5138.57 2015.8 70 11 15
2017.45 -5138.57 2026.28 70 11 15
2006.93 -5138.57 2036.7 70 11 16
1219.34 -3138.57 1250.33 70 11 16
778.016 -2013.32 806.099 70 10 15
773.828 -2013.32 810.119 71 10 15
1199.76 -3138.57 1269.13 71 10 15
1193.17 -3138.57 1275.33 71 10 15
1186.55 -3138.57 1281.49 71 11 15
1179.89 -3138.57 1287.62 72 11 16
1173.2 -3138.57 1293.72 71 10 16
1166.48 -3138.57 1299.78 71 10 17
1159.73 -3138.57 1305.81 71 11 16
1152.95 -3138.57 1311.8 70 11 15
735.223 -2013.32 845.311 71 12 16
730.833 -2013.32 849.109 72 13 17
726.423 -2013.32 852.885 71 12 16
721.995 -2013.32 856.637 70 11 16
1118.58 -3138.57 1341.23 70 11 15
1111.62 -3138.57 1347 69 10 14
1808.53 -5138.57 2214.76 70 11 15
1797.03 -5138.57 2224.1 71 12 16
1785.48 -5138.57 2233.38 70 11 15
1773.88 -5138.57 2242.6 69 10 14
1762.24 -5138.57 2251.76 71 12 16
1750.55 -5138.57 2260.86 72 13 18
1738.81 -5138.57 2269.9 72 13 18
1727.02 -5138.57 2278.88 72 13 18
1715.19 -5138.57 2287.8 72 13 18
1703.32 -5138.57 2296.66 71 12 18
1691.39 -5138.57 2305.45 72 13 19
1679.42 -5138.57 2314.18 73 14 20
1667.41 -5138.57 2322.85 71 13 18
1655.35 -5138.57 2331.46 70 12 16
1643.25 -5138.57 2340.01 70 12 16
1631.1 -5138.57 2348.49 69 12 17
1618.91 -5138.57 2356.91 68 12 18
1606.68 -5138.57 2365.27 68 12 18
1594.4 -5138.57 2373.56 68 13 19
1582.08 -5138.57 2381.79 68 13 18
1569.72 -5138.57 2389.96 68 13 18
1557.32 -5138.57 2398.06 68 13 17
1544.87 -5138.57 2406.09 68 12 16
1532.38 -5138.57 2414.07 68 12 15
1519.85 -5138.57 2421.97 68 12 15
1507.28 -5138.57 2429.82 68 12 15
1494.67 -5138.57 2437.59 68 12 15
1482.02 -5138.57 2445.31 68 11 15
1469.33 -5138.57 2452.95 70 11 15
1456.6 -5138.57 2460.53 70 11 15
1443.84 -5138.57 2468.05 70 11 15
1431.03 -5138.57 2475.49 70 11 15
1418.18 -5138.57 2482.88 70 11 15
1405.3 -5138.57 2490.19 69 11 16
1392.38 -5138.57 2497.44 69 12 16
1379.42 -5138.57 2504.62 69 12 16
1366.42 -5138.57 2511.73 68 11 16
1353.39 -5138.57 2518.78 68 11 15
1340.32 -5138.57 2525.76 67 11 16
1327.21 -5138.57 2532.67 66 11 16
1314.07 -5138.57 2539.51 66 11 16
1300.9 -5138.57 2546.29 66 11 16
1287.69 -5138.57 2552.99 66 10 16
1274.44 -5138.57 2559.63 66 9 15
1261.16 -5138.57 2566.2 66 9 15
1247.85 -5138.57 2572.7 66 9 15
1234.5 -5138.57 2579.13 66 9 15
1221.12 -5138.57 2585.49 65 8 14
1207.71 -5138.57 2591.79 66 9 15
1194.26 -5138.57 2598.01 66 9 16
1180.79 -5138.57 2604.16 67 10 16
1167.28 -5138.57 2610.24 67 10 16
1153.74 -5138.57 2616.26 66 9 15
1140.17 -5138.57 2622.2 66 8 15
1126.56 -5138.57 2628.07 67 7 15
1112.93 -5138.57 2633.88 67 8 15
1099.27 -5138.57 2639.61 66 9 15
1085.58 -5138.57 2645.27 66 9 15
1071.86 -5138.57 2650.86 66 9 15
1058.11 -5138.57 2656.37 66 9 15
1044.33 -5138.57 2661.82 66 9 15
1030.52 -5138.57 2667.2 66 9 15
1016.69 -5138.57 2672.5 67 9 15
1002.83 -5138.57 2677.73 67 9 16
988.94 -5138.57 2682.89 67 9 16
975.025 -5138.57 2687.98 67 10 16
961.085 -5138.57 2693 67 10 16
947.118 -5138.57 2697.94 68 9 15
933.127 -5138.57 2702.81 68 9 15
919.11 -5138.57 2707.61 69 10 16
905.068 -5138.57 2712.34 68 10 17
891.002 -5138.57 2716.99 67 10 17
876.912 -5138.57 2721.57 67 9 16
862.799 -5138.57 2726.08 68 8 16
848.662 -5138.57 2730.51 68 9 16
834.503 -5138.57 2734.87 68 9 15
820.321 -5138.57 2739.16 68 11 15
806.118 -5138.57 2743.37 68 12 16
791.892 -5138.57 2747.51 69 11 16
777.646 -5138.57 2751.58 69 11 17
466.262 -3138.57 1683.07 68 11 17
457.535 -3138.57 1685.46 68 10 17
448.796 -3138.57 1687.81 69 10 16
440.044 -3138.57 1690.11 70 10 17
706.107 -5138.57 2770.8 70 10 17
691.741 -5138.57 2774.42 70 10 17
677.356 -5138.57 2777.97 69 10 16
662.953 -5138.57 2781.44 69 10 16
648.532 -5138.57 2784.84 69 10 16
634.094 -5138.57 2788.16 70 10 16
619.639 -5138.57 2791.41 70 11 17
605.167 -5138.57 2794.58 70 11 17
590.679 -5138.57 2797.68 71 11 17
576.175 -5138.57 2800.7 72 11 18
561.656 -5138.57 2803.65 71 11 18
547.122 -5138.57 2806.52 71 12 18
532.572 -5138.57 2809.32 70 11 17
518.009 -5138.57 2812.04 70 11 17
503.431 -5138.57 2814.69 71 12 18
488.841 -5138.57 2817.26 71 12 18
474.237 -5138.57 2819.75 70 11 17
459.62 -5138.57 2822.17 70 11 16
444.991 -5138.57 2824.52 69 10 14
430.35 -5138.57 2826.78 69 10 15
415.698 -5138.57 2828.98 69 10 16
401.034 -5138.57 2831.09 69 11 17
386.359 -5138.57 2833.13 70 11 17
371.674 -5138.57 2835.1 68 10 16
356.98 -5138.57 2836.98 67 10 16
342.275 -5138.57 2838.8 67 10 16
327.562 -5138.57 2840.53 67 10 16
312.839 -5138.57 2842.19 68 11 18
298.109 -5138.57 2843.77 69 11 17
283.37 -5138.57 2845.28 70 11 17
268.623 -5138.57 2846.71 70 11 17
253.87 -5138.57 2848.06 70 11 17
239.109 -5138.57 2849.34 69 11 17
224.342 -5138.57 2850.54 69 10 16
209.57 -5138.57 2851.66 68 10 16
194.791 -5138.57 2852.71 67 10 16
180.007 -5138.57 2853.68 67 10 16
165.219 -5138.57 2854.58 67 10 16
150.426 -5138.57 2855.4 68 11 17
135.629 -5138.57 2856.14 69 11 17
120.828 -5138.57 2856.8 69 10 16
106.024 -5138.57 2857.39 67 10 16
91.2174 -5138.57 2857.9 66 9 15
76.4082 -5138.57 2858.33 67 10 16
61.597 -5138.57 2858.69 67 10 16
46.7838 -5138.57 2858.97 67 10 16
31.9697 -5138.57 2859.18 67 10 16
17.1547 -5138.57 2859.3 67 11 15
2.33921 -5138.57 2859.35 67 11 15
-12.4763 -5138.57 2859.33 67 10 16
-27.2915 -5138.57 2859.23 67 10 16
-42.1059 -5138.57 2859.05 67 10 16
-56.9193 -5138.57 2858.79 67 10 16
-71.7314 -5138.57 2858.46 67 10 16
-86.5412 -5138.57 2858.05 68 11 15
-101.349 -5138.57 2857.56 68 12 15
-116.154 -5138.57 2857 68 12 15
-130.955 -5138.57 2856.35 68 12 16
-145.753 -5138.57 2855.64 68 11 17
-160.548 -5138.57 2854.84 69 11 16
-175.338 -5138.57 2853.97 70 11 15
-190.123 -5138.57 2853.03 70 11 15
-204.903 -5138.57 2852 69 10 14
-219.678 -5138.57 2850.9 70 11 15
-234.447 -5138.57 2849.73 70 11 15
-249.209 -5138.57 2848.47 69 12 15
-263.965 -5138.57 2847.15 68 12 15
-278.714 -5138.57 2845.74 67 11 14
-293.455 -5138.57 2844.26 67 11 14
-308.188 -5138.57 2842.7 68 12 15
-322.914 -5138.57 2841.06 68 12 16
-337.63 -5138.57 2839.35 69 12 17
-352.337 -5138.57 2837.56 69 12 17
-367.035 -5138.57 2835.7 69 13 16
-233.152 -3138.57 1730.83 69 12 17
-396.401 -5138.57 2831.74 68 11 17
-411.068 -5138.57 2829.65 68 11 17
-425.724 -5138.57 2827.49 67 10 16
-440.369 -5138.57 2825.24 67 10 16
-455.002 -5138.57 2822.92 67 10 16
-469.622 -5138.57 2820.53 67 10 16
-484.23 -5138.57 2818.05 67 10 16
-498.826 -5138.57 2815.51 67 10 16
-513.407 -5138.57 2812.89 67 10 16
-527.975 -5138.57 2810.19 67 10 16
-542.529 -5138.57 2807.41 67 10 16
-557.068 -5138.57 2804.57 67 10 16
-571.592 -5138.57 2801.64 66 11 16
-586.101 -5138.57 2798.64 66 11 16
-600.594 -5138.57 2795.57 66 10 15
-615.071 -5138.57 2792.42 66 10 15
-629.531 -5138.57 2789.19 66 11 16
-643.975 -5138.57 2785.89 66 11 16
-658.401 -5138.57 2782.52 67 11 16
-672.809 -5138.57 2779.07 66 11 16
-687.2 -5138.57 2775.55 66 10 15
-701.572 -5138.57 2771.95 66 10 16
-715.925 -5138.57 2768.28 67 10 16
-730.259 -5138.57 2764.53 67 10 16
-744.574 -5138.57 2760.71 67 10 16
-758.868 -5138.57 2756.82 67 10 16
-773.142 -5138.57 2752.85 67 10 16
-787.395 -5138.57 2748.8 67 10 16
-801.628 -5138.57 2744.69 68 10 16
-815.838 -5138.57 2740.5 69 9 17
-830.027 -5138.57 2736.23 68 9 17
-844.194 -5138.57 2731.9 67 10 16
-858.337 -5138.57 2727.48 66 10 15
-872.458 -5138.57 2723 65 10 15
-886.555 -5138.57 2718.44 66 10 15
-900.629 -5138.57 2713.81 66 9 15
-914.678 -5138.57 2709.11 66 9 15
-928.703 -5138.57 2704.33 67 10 16
-942.703 -5138.57 2699.49 66 9 16
-956.677 -5138.57 2694.57 66 9 16
-970.626 -5138.57 2689.57 65 10 15
-984.549 -5138.57 2684.51 65 10 15
-998.445 -5138.57 2679.37 66 11 16
-1012.31 -5138.57 2674.16 66 11 16
-1026.16 -5138.57 2668.88 65 10 15
-1039.97 -5138.57 2663.53 66 10 15
-1053.76 -5138.57 2658.1 67 9 15
-1067.52 -5138.57 2652.61 68 10 16
-1081.25 -5138.57 2647.04 68 10 16
-1094.95 -5138.57 2641.4 68 10 16
-1108.62 -5138.57 2635.69 68 10 16
-1122.26 -5138.57 2629.91 68 10 14
-1135.87 -5138.57 2624.06 68 9 13
-1149.45 -5138.57 2618.14 68 9 13
-1163 -5138.57 2612.15 68 9 13
-1176.52 -5138.57 2606.09 67 10 13
-1190.01 -5138.57 2599.96 66 10 13
-1203.47 -5138.57 2593.76 68 10 15
-1216.89 -5138.57 2587.49 68 10 16
-1230.28 -5138.57 2581.15 67 11 16
-1243.64 -5138.57 2574.74 66 11 16
-1256.96 -5138.57 2568.26 66 10 16
-1270.25 -5138.57 2561.71 66 9 15
-1283.51 -5138.57 2555.1 66 9 15
-1296.73 -5138.57 2548.41 66 9 15
-1309.92 -5138.57 2541.66 66 9 15
-1323.07 -5138.57 2534.84 66 9 15
-1336.19 -5138.57 2527.95 66 9 15
-1349.27 -5138.57 2520.99 67 10 16
-1362.31 -5138.57 2513.97 67 10 16
-1375.32 -5138.57 2506.87 66 9 15
-1388.29 -5138.57 2499.71 66 9 15
-1401.22 -5138.57 2492.49 66 9 15
-1414.12 -5138.57 2485.19 66 9 15
-1426.98 -5138.57 2477.83 66 9 15
-1439.8 -5138.57 2470.41 66 9 15
-1452.58 -5138.57 2462.91 66 9 15
-1465.32 -5138.57 2455.35 67 10 16
-1478.02 -5138.57 2447.73 66 9 15
-1490.68 -5138.57 2440.04 66 9 15
-1503.31 -5138.57 2432.28 66 9 15
-1515.89 -5138.57 2424.46 67 10 16
-1528.43 -5138.57 2416.57 66 9 15
-1540.93 -5138.57 2408.62 66 9 15
-1553.39 -5138.57 2400.6 67 9 15
-1565.81 -5138.57 2392.52 67 10 16
-1578.18 -5138.57 2384.38 67 10 16
-1590.52 -5138.57 2376.17 67 10 16
-1602.81 -5138.57 2367.89 66 9 16
-1615.06 -5138.57 2359.56 66 9 16
-1627.26 -5138.57 2351.16 67 10 16
-1639.42 -5138.57 2342.69 67 10 16
-1651.54 -5138.57 2334.17 67 10 16
-1663.61 -5138.57 2325.58 67 10 16
-1675.64 -5138.57 2316.93 67 10 16
-1687.62 -5138.57 2308.21 67 10 16
-1699.56 -5138.57 2299.44 67 10 16
-1711.45 -5138.57 2290.6 66 9 15
-1723.29 -5138.57 2281.7 67 10 16
-1735.09 -5138.57 2272.74 67 10 17
-1746.84 -5138.57 2263.72 66 9 15
-1758.55 -5138.57 2254.64 65 7 13
-1770.21 -5138.57 2245.5 65 7 13
-1781.82 -5138.57 2236.3 66 8 14
-1793.38 -5138.57 2227.04 66 8 14
-1804.9 -5138.57 2217.71 67 8 14
-1816.37 -5138.57 2208.33 67 8 14
-1827.78 -5138.57 2198.89 67 8 14
-1839.15 -5138.57 2189.39 67 8 14
-1850.47 -5138.57 2179.83 67 8 14
-1861.74 -5138.57 2170.21 66 8 14
-1872.96 -5138.57 2160.54 66 9 15
-1884.13 -5138.57 2150.8 66 9 15
-1895.25 -5138.57 2141.01 65 8 14
-1906.32 -5138.57 2131.16 65 8 14
-1917.34 -5138.57 2121.26 65 7 13
-1928.3 -5138.57 2111.3 65 8 14
-1939.21 -5138.57 2101.28 66 8 14
-1950.08 -5138.57 2091.2 66 8 14
-1960.89 -5138.57 2081.07 66 8 14
-1971.64 -5138.57 2070.88 65 8 14
-1982.35 -5138.57 2060.64 65 8 14
-1993 -5138.57 2050.34 65 8 14
-2003.59 -5138.57 2039.98 65 8 14
-1230.21 -3138.57 1239.64 64 7 13
-1236.62 -3138.57 1233.25 65 8 14
-1242.99 -3138.57 1226.82 65 8 14
-2045.44 -5138.57 1998.02 65 8 14
-2055.76 -5138.57 1987.4 65 8 14
-2066.03 -5138.57 1976.72 65 8 14
-2076.25 -5138.57 1965.99 66 9 15
-2086.41 -5138.57 1955.2 66 9 15
-1280.52 -3138.57 1187.59 66 9 15
-1286.66 -3138.57 1180.94 66 9 15
-1292.76 -3138.57 1174.26 66 9 15
-1298.83 -3138.57 1167.55 66 9 15
-1304.86 -3138.57 1160.8 66 9 15
-2146.17 -5138.57 1889.4 67 10 16
-2155.94 -5138.57 1878.26 67 10 16
-2165.64 -5138.57 1867.06 67 10 16
-2175.28 -5138.57 1855.82 66 9 15
-2184.87 -5138.57 1844.52 65 9 14
-2194.4 -5138.57 1833.17 65 9 13
-2203.87 -5138.57 1821.78 66 9 14
-2213.28 -5138.57 1810.34 66 9 15
-2222.63 -5138.57 1798.84 66 9 15
-2231.92 -5138.57 1787.3 66 9 15
-2241.15 -5138.57 1775.72 66 9 15
-2250.32 -5138.57 1764.08 66 9 15
-2259.43 -5138.57 1752.4 65 8 14
-2268.48 -5138.57 1740.67 65 8 14
-2277.47 -5138.57 1728.89 65 8 14
-2286.4 -5138.57 1717.06 65 8 14
-2295.26 -5138.57 1705.19 65 8 14
-2304.07 -5138.57 1693.28 65 8 14
-2312.81 -5138.57 1681.32 66 9 14
-2321.49 -5138.57 1669.31 66 9 15
-2330.11 -5138.57 1657.26 66 9 15
-2338.66 -5138.57 1645.16 66 9 15
-2347.16 -5138.57 1633.03 66 9 15
-2355.59 -5138.57 1620.84 67 10 16
-2363.95 -5138.57 1608.61 66 9 15
-2372.26 -5138.57 1596.34 65 9 15
-2380.5 -5138.57 1584.03 65 9 14
-2388.67 -5138.57 1571.68 65 9 15
-2396.78 -5138.57 1559.28 65 9 15
-2404.83 -5138.57 1546.84 65 10 15
-2412.81 -5138.57 1534.36 64 9 14
-2420.73 -5138.57 1521.83 64 9 14
-2428.58 -5138.57 1509.27 65 10 15
-2436.37 -5138.57 1496.67 66 11 16
-2444.09 -5138.57 1484.02 66 11 16
-2451.75 -5138.57 1471.34 65 10 15
-2459.34 -5138.57 1458.62 65 10 15
-2466.86 -5138.57 1445.85 64 9 14
-2474.32 -5138.57 1433.05 64 9 14
-2481.71 -5138.57 1420.21 64 9 14
-2489.04 -5138.57 1407.34 63 8 13
-2496.3 -5138.57 1394.42 63 8 13
-2503.49 -5138.57 1381.47 63 8 13
-2510.61 -5138.57 1368.48 64 9 14
-2517.67 -5138.57 1355.45 64 9 14
-1542.03 -3138.57 819.913 63 8 13
-1546.26 -3138.57 811.911 63 8 13
-2538.44 -5138.57 1316.15 64 8 13
-2545.22 -5138.57 1302.98 63 8 13
-2551.94 -5138.57 1289.78 63 8 13
-2558.59 -5138.57 1276.54 63 7 13
-2565.17 -5138.57 1263.26 64 7 13
-2571.68 -5138.57 1249.95 64 7 13
-2578.12 -5138.57 1236.61 64 7 13
-2584.49 -5138.57 1223.24 64 7 13
-2660.97 -5138.57 1046.51 64 9 14
-2666.35 -5138.57 1032.7 64 9 14
-2671.67 -5138.57 1018.87 64 10 14
-2676.91 -5138.57 1005.02 64 11 15
-2682.08 -5138.57 991.134 64 11 15
-2687.18 -5138.57 977.224 64 12 16
-2692.21 -5138.57 963.288 64 12 16
-2697.16 -5138.57 949.326 65 13 17
-2702.05 -5138.57 935.337 65 13 17
-1653.31 -3138.57 562.733 65 13 17
-1656.21 -3138.57 554.159 66 13 17
-2716.26 -5138.57 893.224 66 14 18
-2720.85 -5138.57 879.139 67 14 18
-2725.37 -5138.57 865.029 67 14 18
-1667.34 -3138.57 519.717 67 15 19
-145.974 -274.339 44.6721 67 15 19
-146.203 -274.339 43.9152 66 15 18
-146.429 -274.339 43.157 65 14 18
-149.307 -279.31 43.1659 64 13 17
-149.529 -279.31 42.3918 64 13 16
-149.747 -279.31 41.6164 63 12 15
-149.96 -279.31 40.84 62 12 15
-150.17 -279.31 40.0624 61 11 14
-147.699 -274.339 38.5847 60 10 14
-147.897 -274.339 37.8188 60 9 14
-145.549 -269.629 36.4159 59 8 13
-148.281 -274.339 36.2842 58 7 12
-148.467 -274.339 35.5154 57 7 11
-148.649 -274.339 34.7457 56 7 11
-148.827 -274.339 33.975 56 7 11
-149.001 -274.339 33.2034 55 6 10
-144.976 -266.623 31.5187 55 6 10
-145.137 -266.623 30.7672 55 6 10
-145.295 -266.623 30.0147 53 5 9
-145.448 -266.623 29.2615 52 5 9
-145.598 -266.623 28.5075 50 4 8
-145.744 -266.623 27.7527 49 4 7
-145.886 -266.623 26.9971 49 4 8
-143.656 -262.3 25.8154 50 5 9
-143.788 -262.3 25.0707 50 5 9
-143.916 -262.3 24.3253 50 5 10
-146.414 -266.623 23.9679 50 5 10
-146.536 -266.623 23.209 49 6 10
-144.276 -262.3 22.0854 49 6 10
-144.389 -262.3 21.3376 48 6 10
-144.497 -262.3 20.5891 48 6 10
-144.602 -262.3 19.8402 48 6 10
-144.703 -262.3 19.0907 47 6 10
-144.8 -262.3 18.3406 47 6 10
-147.281 -266.623 17.88 46 6 10
-149.033 -269.629 17.3096 46 6 9
-149.121 -269.629 16.5372 45 6 9
-151.811 -274.339 16.0397 45 6 9
-156.566 -282.781 15.7222 45 6 9
-162.882 -294.04 15.5045 45 6 9
-162.961 -294.04 14.6603 44 5 8
-2837.85 -5138.57 -350.015 35 5 7
-2836 -5138.57 -364.715 35 5 7
-2834.07 -5138.57 -379.404 35 5 7
-2829.99 -5138.57 -408.753 34 4 6
-2827.83 -5138.57 -423.411 34 4 6
-2825.6 -5138.57 -438.058 33 4 6
-2823.29 -5138.57 -452.692 33 4 6
-2820.91 -5138.57 -467.315 33 4 6
-2818.45 -5138.57 -481.925 33 4 6
90.6558 -160.95 0 41 7 8
90.163 -160.077 0.467179 41 7 8
90.1594 -160.077 0.934346 42 8 9
90.1533 -160.077 1.40149 41 7 8
89.4129 -158.777 1.85342 41 7 8
89.4021 -158.777 2.31668 41 7 8
90.1207 -160.077 2.80264 41 7 8
89.3733 -158.777 3.243 41 7 8
89.3553 -158.777 3.70604 41 7 8
89.3349 -158.777 4.16898 42 7 8
89.3121 -158.777 4.6318 42 7 8
89.2869 -158.777 5.0945 42 6 8
89.2593 -158.777 5.55707 42 6 8
89.2293 -158.777 6.01948 43 6 8
89.1969 -158.777 6.48174 44 6 9
89.1621 -158.777 6.94382 44 6 9
89.1249 -158.777 7.40571 45 6 9
89.8147 -160.077 7.93181 45 6 9
88.7978 -158.777 10.6327 47 6 10
88.7415 -158.777 11.0927 47 6 10
88.6828 -158.777 11.5523 47 6 10
88.6218 -158.777 12.0117 47 6 10
88.5583 -158.777 12.4707 47 6 10
88.4925 -158.777 12.9294 48 7 10
88.4244 -158.777 13.3877 48 7 10
88.3538 -158.777 13.8457 49 7 10
88.2809 -158.777 14.3033 49 7 9
88.2056 -158.777 14.7606 49 7 9
88.8494 -160.077 15.342 50 7 10
94.4236 -170.942 18.8356 52 7 11
94.3247 -170.942 19.3246 52 7 12
93.4453 -169.53 19.6494 52 7 11
93.3422 -169.53 20.1334 52 7 10
93.2367 -169.53 20.6167 52 6 9
93.1286 -169.53 21.0995 53 6 9
93.018 -169.53 21.5818 55 6 10
92.9049 -169.53 22.0635 55 6 10
92.7894 -169.53 22.5446 56 7 10
93.4429 -170.942 23.2167 56 7 10
93.3213 -170.942 23.7006 57 7 10
93.1973 -170.942 24.1838 57 7 10
92.3022 -169.53 24.4627 58 7 11
92.1742 -169.53 24.9406 59 7 11
92.0438 -169.53 25.4179 60 7 11
91.9108 -169.53 25.8945 61 7 11
91.7754 -169.53 26.3704 62 7 11
95.0178 -175.784 27.8358 63 7 11
2790.1 -5169.62 833.09 65 7 11
94.7243 -175.784 28.8189 66 7 11
94.5737 -175.784 29.3094 65 7 11
94.4205 -175.784 29.799 65 7 11
94.2649 -175.784 30.2878 64 8 11
94.9086 -177.282 31.0381 66 8 12
94.7465 -177.282 31.5294 67 9 12
95.3933 -178.803 32.2947 68 9 13
95.2247 -178.803 32.7885 70 10 15
95.0536 -178.803 33.2815 72 11 16
95.425 -179.83 33.9676 73 12 17
95.2478 -179.83 34.4616 74 14 18
95.0679 -179.83 34.9546 74 15 19
94.8855 -179.83 35.4468 75 16 20
94.7006 -179.83 35.9379 76 17 21
94.5131 -179.83 36.4281 76 17 21
94.3231 -179.83 36.9174 76 17 21
94.9484 -181.393 37.7306 76 17 21
2700.39 -5169.62 1089.31 77 18 22
2694.71 -5169.62 1103.29 76 17 21
2688.95 -5169.62 1117.24 76 17 21
2683.13 -5169.62 1131.16 75 16 20
2677.23 -5169.62 1145.04 74 15 19
2671.26 -5169.62 1158.9 73 14 18
2665.22 -5169.62 1172.73 73 13 17
2659.11 -5169.62 1186.52 74 13 16
2652.93 -5169.62 1200.28 73 12 15
2646.67 -5169.62 1214.01 72 10 13
2640.34 -5169.62 1227.71 70 8 11
2633.95 -5169.62 1241.37 69 8 11
2627.48 -5169.62 1255 69 7 12
2620.94 -5169.62 1268.6 68 7 12
2614.33 -5169.62 1282.16 67 6 11
2607.66 -5169.62 1295.69 67 6 11
2600.91 -5169.62 1309.19 67 7 11
2594.09 -5169.62 1322.65 67 8 12
2587.2 -5169.62 1336.07 67 8 12
2580.24 -5169.62 1349.46 66 9 13
1571.36 -3156.88 832.212 66 10 13
1567.03 -3156.88 840.342 65 9 12
1562.65 -3156.88 848.451 65 9 12
1558.23 -3156.88 856.536 64 8 11
1553.78 -3156.88 864.598 65 9 12
1549.27 -3156.88 872.637 65 9 12
1544.73 -3156.88 880.653 66 8 12
1540.15 -3156.88 888.645 66 9 12
1535.52 -3156.88 896.613 66 9 12
2506.89 -5169.62 1481.28 65 9 12
2499.18 -5169.62 1494.25 65 9 12
2491.41 -5169.62 1507.18 65 9 12
2483.56 -5169.62 1520.07 65 8 12
2475.65 -5169.62 1532.91 66 8 12
2467.68 -5169.62 1545.72 68 7 12
1502 -3156.88 951.705 68 8 12
1497.05 -3156.88 959.475 67 9 13
1492.06 -3156.88 967.219 66 9 13
1487.03 -3156.88 974.937 66 9 12
1481.95 -3156.88 982.629 66 9 12
1476.84 -3156.88 990.294 67 8 13
2410 -5169.62 1634.19 68 7 14
2401.5 -5169.62 1646.65 68 8 14
2392.94 -5169.62 1659.07 68 8 14
2384.31 -5169.62 1671.45 67 8 13
2375.62 -5169.62 1683.78 66 7 11
2366.86 -5169.62 1696.07 66 7 11
2358.04 -5169.62 1708.31 66 7 11
2349.16 -5169.62 1720.51 67 8 12
2340.21 -5169.62 1732.65 67 8 12
2331.2 -5169.62 1744.76 68 9 13
2322.13 -5169.62 1756.81 67 8 12
2313 -5169.62 1768.82 67 8 12
2303.8 -5169.62 1780.78 67 8 13
2294.54 -5169.62 1792.69 67 8 14
2285.23 -5169.62 1804.56 67 8 14
2275.84 -5169.62 1816.38 68 9 15
2266.4 -5169.62 1828.14 68 9 15
2256.9 -5169.62 1839.86 68 9 15
2247.34 -5169.62 1851.53 68 9 15
2237.71 -5169.62 1863.15 68 9 15
2228.03 -5169.62 1874.72 68 9 15
2218.28 -5169.62 1886.24 68 9 14
2208.48 -5169.62 1897.71 68 9 13
2198.62 -5169.62 1909.13 67 8 12
2188.7 -5169.62 1920.49 67 8 12
2178.72 -5169.62 1931.81 68 9 13
2168.68 -5169.62 1943.07 69 10 14
2158.58 -5169.62 1954.28 69 10 14
2148.43 -5169.62 1965.44 69 11 15
2138.21 -5169.62 1976.54 68 10 16
2127.94 -5169.62 1987.6 67 10 16
2117.62 -5169.62 1998.6 68 10 15
2107.23 -5169.62 2009.54 70 11 15
2096.79 -5169.62 2020.43 69 10 15
2086.3 -5169.62 2031.27 70 9 16
2075.74 -5169.62 2042.05 71 10 17
2065.13 -5169.62 2052.78 72 11 18
2054.47 -5169.62 2063.45 71 11 17
2043.75 -5169.62 2074.07 70 11 17
1241.46 -3156.88 1273 70 11 17
791.887 -2024.46 820.471 70 11 17
787.625 -2024.46 824.563 70 11 16
783.342 -2024.46 828.633 71 11 16
1214.81 -3156.88 1298.46 71 11 15
1208.06 -3156.88 1304.73 70 11 15
1201.29 -3156.88 1310.98 70 11 15
1194.48 -3156.88 1317.18 70 10 16
1187.64 -3156.88 1323.35 70 10 16
1180.77 -3156.88 1329.49 69 11 17
1173.86 -3156.88 1335.59 69 11 17
748.331 -2024.46 860.382 69 12 17
743.863 -2024.46 864.248 70 12 17
739.375 -2024.46 868.091 71 12 16
734.867 -2024.46 871.91 70 12 17
1138.87 -3156.88 1365.55 70 11 17
1131.78 -3156.88 1371.43 70 12 16
1841.71 -5169.62 2255.39 70 12 16
1830 -5169.62 2264.91 71 13 17
1818.24 -5169.62 2274.36 72 13 18
1806.43 -5169.62 2283.75 72 13 19
1794.57 -5169.62 2293.08 72 13 19
1782.67 -5169.62 2302.34 72 13 19
1770.71 -5169.62 2311.55 71 13 19
1758.71 -5169.62 2320.69 71 14 19
1746.66 -5169.62 2329.78 70 13 19
1734.57 -5169.62 2338.79 70 14 19
1722.43 -5169.62 2347.75 70 14 19
1710.24 -5169.62 2356.64 69 13 19
1698.01 -5169.62 2365.47 68 13 18
1685.73 -5169.62 2374.24 68 13 18
1673.4 -5169.62 2382.94 68 13 19
1661.03 -5169.62 2391.58 68 13 18
1648.62 -5169.62 2400.16 68 13 18
1636.16 -5169.62 2408.67 67 13 18
1623.66 -5169.62 2417.11 67 13 19
1611.11 -5169.62 2425.49 68 13 19
1598.52 -5169.62 2433.81 68 13 19
1585.89 -5169.62 2442.06 68 13 18
1573.22 -5169.62 2450.24 68 13 17
1560.5 -5169.62 2458.36 68 13 16
1547.74 -5169.62 2466.41 68 13 16
1534.94 -5169.62 2474.4 68 13 17
1522.1 -5169.62 2482.32 68 13 17
1509.22 -5169.62 2490.17 67 14 17
1496.29 -5169.62 2497.96 68 13 17
1483.33 -5169.62 2505.68 69 12 17
1470.33 -5169.62 2513.33 68 12 17
1457.28 -5169.62 2520.91 67 12 17
1444.2 -5169.62 2528.43 67 12 17
1431.08 -5169.62 2535.88 67 12 17
1417.92 -5169.62 2543.26 68 13 18
1404.73 -5169.62 2550.57 68 13 18
1391.49 -5169.62 2557.82 67 12 18
1378.22 -5169.62 2564.99 66 12 17
1364.91 -5169.62 2572.1 66 12 17
1351.57 -5169.62 2579.14 66 12 17
1338.18 -5169.62 2586.11 65 12 19
1324.77 -5169.62 2593.01 66 12 19
1311.31 -5169.62 2599.84 68 13 18
1297.83 -5169.62 2606.59 68 12 17
1284.3 -5169.62 2613.28 68 11 17
1270.74 -5169.62 2619.9 67 10 16
1257.15 -5169.62 2626.45 66 10 16
1243.53 -5169.62 2632.93 65 9 15
1229.87 -5169.62 2639.34 65 9 16
1216.18 -5169.62 2645.68 65 10 16
1202.45 -5169.62 2651.94 65 10 17
1188.69 -5169.62 2658.14 66 11 17
1174.91 -5169.62 2664.26 66 11 17
1161.09 -5169.62 2670.31 67 11 17
1147.23 -5169.62 2676.29 66 10 17
1133.35 -5169.62 2682.2 65 10 16
1119.44 -5169.62 2688.04 65 10 16
1105.5 -5169.62 2693.8 65 10 16
1091.52 -5169.62 2699.49 65 10 16
1077.52 -5169.62 2705.11 65 10 16
1063.49 -5169.62 2710.66 65 10 16
1049.43 -5169.62 2716.13 65 10 17
1035.34 -5169.62 2721.54 65 10 16
1021.23 -5169.62 2726.86 65 10 16
1007.08 -5169.62 2732.12 64 10 17
992.915 -5169.62 2737.3 64 10 17
978.719 -5169.62 2742.41 64 10 18
964.496 -5169.62 2747.44 66 10 17
950.248 -5169.62 2752.4 67 9 16
935.974 -5169.62 2757.29 67 9 16
921.674 -5169.62 2762.1 67 9 16
907.35 -5169.62 2766.84 66 9 16
893.002 -5169.62 2771.5 67 10 17
878.629 -5169.62 2776.09 68 10 17
864.234 -5169.62 2780.61 69 11 18
849.815 -5169.62 2785.05 70 11 17
835.373 -5169.62 2789.42 69 11 17
820.908 -5169.62 2793.71 68 11 17
806.422 -5169.62 2797.92 68 11 17
791.914 -5169.62 2802.06 69 10 16
474.717 -3156.88 1713.59 67 10 16
465.832 -3156.88 1716.03 67 10 16
456.934 -3156.88 1718.42 68 10 17
448.024 -3156.88 1720.76 68 9 17
719.062 -5169.62 2821.64 69 10 17
704.433 -5169.62 2825.33 69 10 17
689.784 -5169.62 2828.94 69 10 17
675.117 -5169.62 2832.47 68 10 16
660.431 -5169.62 2835.93 67 10 16
645.728 -5169.62 2839.32 68 11 17
631.008 -5169.62 2842.62 69 11 18
616.271 -5169.62 2845.86 69 11 18
601.517 -5169.62 2849.01 69 11 18
586.747 -5169.62 2852.09 70 12 18
571.961 -5169.62 2855.09 69 12 18
557.16 -5169.62 2858.02 68 11 17
542.344 -5169.62 2860.87 67 11 17
527.513 -5169.62 2863.64 67 11 16
512.668 -5169.62 2866.33 67 12 17
497.81 -5169.62 2868.95 68 12 17
482.938 -5169.62 2871.49 69 12 18
468.053 -5169.62 2873.95 69 12 18
453.156 -5169.62 2876.34 69 12 18
438.246 -5169.62 2878.65 69 12 17
423.325 -5169.62 2880.88 68 11 17
408.392 -5169.62 2883.04 68 11 17
393.448 -5169.62 2885.11 67 10 16
378.494 -5169.62 2887.11 67 10 14
363.529 -5169.62 2889.04 66 10 13
348.555 -5169.62 2890.88 67 10 15
333.572 -5169.62 2892.65 67 10 16
318.579 -5169.62 2894.34 68 11 17
303.578 -5169.62 2895.95 68 11 16
288.569 -5169.62 2897.48 68 12 15
273.552 -5169.62 2898.94 68 12 16
258.528 -5169.62 2900.32 69 12 18
243.496 -5169.62 2901.62 69 12 18
228.459 -5169.62 2902.84 69 12 18
213.415 -5169.62 2903.99 68 11 17
198.365 -5169.62 2905.05 67 10 16
183.31 -5169.62 2906.04 67 10 16
168.25 -5169.62 2906.95 67 10 16
153.186 -5169.62 2907.79 67 10 16
138.117 -5169.62 2908.54 67 10 16
123.045 -5169.62 2909.22 67 10 16
107.969 -5169.62 2909.82 67 10 16
92.8911 -5169.62 2910.34 67 10 16
77.8102 -5169.62 2910.78 67 10 16
62.7272 -5169.62 2911.14 67 10 16
47.6422 -5169.62 2911.43 67 10 16
32.5562 -5169.62 2911.64 67 10 16
17.4694 -5169.62 2911.77 67 10 16
2.38213 -5169.62 2911.82 67 10 16
-12.7052 -5169.62 2911.79 68 11 17
-27.7922 -5169.62 2911.69 68 11 17
-42.8785 -5169.62 2911.5 67 10 16
-57.9636 -5169.62 2911.24 68 11 17
-73.0475 -5169.62 2910.9 68 11 17
-88.1291 -5169.62 2910.48 67 10 16
-103.208 -5169.62 2909.99 67 10 16
-118.285 -5169.62 2909.42 67 10 16
-133.358 -5169.62 2908.76 67 10 16
-148.428 -5169.62 2908.03 68 11 17
-163.493 -5169.62 2907.23 68 11 17
-178.555 -5169.62 2906.34 68 11 17
-193.611 -5169.62 2905.38 68 10 16
-208.663 -5169.62 2904.33 68 10 16
-223.709 -5169.62 2903.21 68 11 16
-238.749 -5169.62 2902.01 68 11 16
-253.782 -5169.62 2900.74 68 11 16
-268.808 -5169.62 2899.38 67 11 16
-283.828 -5169.62 2897.95 67 10 15
-298.839 -5169.62 2896.44 68 11 16
-313.843 -5169.62 2894.86 69 12 17
-328.838 -5169.62 2893.19 69 12 18
-343.825 -5169.62 2891.45 69 12 18
-358.802 -5169.62 2889.63 69 12 17
-373.77 -5169.62 2887.73 69 12 17
-388.727 -5169.62 2885.75 69 12 17
-403.674 -5169.62 2883.7 69 11 17
-418.61 -5169.62 2881.57 67 10 16
-433.535 -5169.62 2879.36 67 10 16
-448.449 -5169.62 2877.08 67 10 16
-463.35 -5169.62 2874.72 67 10 16
-478.239 -5169.62 2872.28 68 11 17
-493.115 -5169.62 2869.76 68 11 17
-507.978 -5169.62 2867.17 68 11 17
-522.827 -5169.62 2864.5 67 10 16
-537.662 -5169.62 2861.75 67 10 16
-552.483 -5169.62 2858.93 68 11 17
-567.289 -5169.62 2856.02 67 11 17
-582.08 -5169.62 2853.05 66 11 16
-596.855 -5169.62 2849.99 66 11 16
-611.614 -5169.62 2846.86 66 11 16
-626.356 -5169.62 2843.65 66 11 16
-641.082 -5169.62 2840.37 66 11 16
-655.79 -5169.62 2837.01 66 11 16
-670.481 -5169.62 2833.57 66 11 16
-685.154 -5169.62 2830.06 66 11 16
-699.809 -5169.62 2826.47 66 10 15
-714.445 -5169.62 2822.81 66 10 15
-729.061 -5169.62 2819.07 66 10 16
-743.658 -5169.62 2815.26 66 11 16
-758.235 -5169.62 2811.36 66 11 16
-772.792 -5169.62 2807.4 65 10 15
-787.328 -5169.62 2803.36 66 10 16
-801.843 -5169.62 2799.24 68 11 18
-816.336 -5169.62 2795.05 67 11 17
-830.807 -5169.62 2790.78 66 11 16
-845.257 -5169.62 2786.44 66 10 16
-859.683 -5169.62 2782.02 66 10 15
-874.086 -5169.62 2777.53 66 10 16
-888.466 -5169.62 2772.96 66 11 16
-902.822 -5169.62 2768.32 66 10 16
-917.153 -5169.62 2763.61 66 10 15
-931.461 -5169.62 2758.82 66 9 15
-945.743 -5169.62 2753.95 65 9 15
-960 -5169.62 2749.02 65 9 15
-974.23 -5169.62 2744.01 64 9 15
-988.435 -5169.62 2738.92 64 9 14
-1002.61 -5169.62 2733.76 65 10 15
-1016.76 -5169.62 2728.53 65 10 15
-1030.89 -5169.62 2723.23 65 10 15
-1044.99 -5169.62 2717.85 65 10 15
-1059.05 -5169.62 2712.4 65 9 15
-1073.09 -5169.62 2706.87 66 9 15
-1087.1 -5169.62 2701.28 67 10 16
-1101.09 -5169.62 2695.61 67 10 16
-1115.04 -5169.62 2689.87 66 9 15
-1128.96 -5169.62 2684.05 66 9 15
-1142.85 -5169.62 2678.17 66 10 14
-1156.71 -5169.62 2672.21 66 10 13
-1170.54 -5169.62 2666.18 65 9 12
-1184.34 -5169.62 2660.08 66 9 12
-1198.11 -5169.62 2653.91 66 10 13
-1211.85 -5169.62 2647.66 66 10 14
-1225.55 -5169.62 2641.35 67 9 15
-1239.22 -5169.62 2634.96 66 9 15
-1252.85 -5169.62 2628.51 66 10 16
-1266.46 -5169.62 2621.98 66 10 16
-1280.02 -5169.62 2615.38 67 10 16
-1293.56 -5169.62 2608.72 66 9 15
-1307.06 -5169.62 2601.98 66 9 15
-1320.52 -5169.62 2595.17 65 8 14
-1333.95 -5169.62 2588.29 65 8 14
-1347.34 -5169.62 2581.35 66 9 15
-1360.7 -5169.62 2574.33 66 9 15
-1374.02 -5169.62 2567.25 66 9 15
-1387.31 -5169.62 2560.09 66 9 15
-1400.55 -5169.62 2552.87 66 9 15
-1413.76 -5169.62 2545.58 66 9 15
-1426.93 -5169.62 2538.22 66 9 15
-1440.06 -5169.62 2530.79 66 9 15
-1453.16 -5169.62 2523.3 66 9 15
-1466.21 -5169.62 2515.73 66 9 15
-1479.23 -5169.62 2508.1 66 9 15
-1492.2 -5169.62 2500.4 66 9 15
-1505.14 -5169.62 2492.64 66 9 15
-1518.03 -5169.62 2484.81 66 9 15
-1530.89 -5169.62 2476.91 66 9 15
-1543.7 -5169.62 2468.94 66 9 15
-1556.47 -5169.62 2460.91 66 9 15
-1569.2 -5169.62 2452.81 66 9 15
-1581.89 -5169.62 2444.65 66 9 15
-1594.54 -5169.62 2436.42 66 9 15
-1607.14 -5169.62 2428.12 66 9 15
-1619.7 -5169.62 2419.76 66 9 15
-1632.22 -5169.62 2411.34 67 10 16
-1644.69 -5169.62 2402.85 67 10 16
-1657.12 -5169.62 2394.3 67 10 16
-1669.5 -5169.62 2385.68 66 9 15
-1681.84 -5169.62 2377 65 8 15
-1694.13 -5169.62 2368.25 66 9 15
-1706.38 -5169.62 2359.44 66 9 15
-1718.58 -5169.62 2350.57 66 9 15
-1730.74 -5169.62 2341.63 67 10 16
-1742.85 -5169.62 2332.63 66 9 16
-1754.91 -5169.62 2323.57 66 9 16
-1766.93 -5169.62 2314.44 66 9 15
-1778.9 -5169.62 2305.26 65 8 14
-1790.82 -5169.62 2296.01 65 8 14
-1802.69 -5169.62 2286.7 65 8 14
-1814.51 -5169.62 2277.33 65 8 14
-1826.29 -5169.62 2267.9 66 9 15
-1838.02 -5169.62 2258.4 66 8 13
-1849.69 -5169.62 2248.85 67 8 12
-1861.32 -5169.62 2239.24 66 8 13
-1872.9 -5169.62 2229.56 65 8 14
-1884.42 -5169.62 2219.83 65 8 14
-1895.9 -5169.62 2210.03 65 8 14
-1907.33 -5169.62 2200.18 65 8 14
-1918.7 -5169.62 2190.27 65 8 14
-1930.02 -5169.62 2180.3 65 8 14
-1941.3 -5169.62 2170.27 64 7 13
-1952.51 -5169.62 2160.18 64 7 13
-1963.68 -5169.62 2150.03 65 8 14
-1974.8 -5169.62 2139.83 65 8 14
-1212.68 -3156.88 1300.44 66 9 15
-1219.4 -3156.88 1294.14 66 9 15
-1226.09 -3156.88 1287.81 65 8 14
-1232.75 -3156.88 1281.44 65 8 14
-1239.37 -3156.88 1275.03 64 7 13
-1245.96 -3156.88 1268.59 64 7 13
-1252.52 -3156.88 1262.12 65 8 14
-1259.04 -3156.88 1255.61 65 8 14
-1265.53 -3156.88 1249.07 65 8 14
-2082.97 -5169.62 2034.68 65 8 14
-2093.48 -5169.62 2023.86 65 8 14
-2103.94 -5169.62 2012.99 65 8 14
-2114.34 -5169.62 2002.06 65 8 14
-1297.46 -3156.88 1215.87 65 8 14
-1303.74 -3156.88 1209.13 65 8 14
-1309.99 -3156.88 1202.36 66 8 14
-1316.2 -3156.88 1195.56 66 8 14
-1322.38 -3156.88 1188.72 65 8 14
-1328.52 -3156.88 1181.85 65 8 14
-2185.55 -5169.62 1924.07 65 8 14
-2195.49 -5169.62 1912.72 65 8 14
-2205.37 -5169.62 1901.32 66 9 15
-2215.2 -5169.62 1889.87 66 9 15
-2224.96 -5169.62 1878.36 66 9 15
-2234.66 -5169.62 1866.81 66 9 15
-2244.3 -5169.62 1855.21 66 9 15
-2253.89 -5169.62 1843.55 66 9 15
-2263.41 -5169.62 1831.85 66 9 15
-2272.87 -5169.62 1820.1 66 9 15
-2282.27 -5169.62 1808.3 66 9 15
-2291.61 -5169.62 1796.45 65 8 14
-2300.89 -5169.62 1784.55 65 8 14
-2310.1 -5169.62 1772.6 65 8 14
-2319.25 -5169.62 1760.61 65 8 14
-2328.35 -5169.62 1748.57 65 8 13
-2337.38 -5169.62 1736.48 65 9 13
-2346.34 -5169.62 1724.35 65 9 12
-2355.24 -5169.62 1712.17 66 9 14
-2364.08 -5169.62 1699.94 66 9 15
-2372.86 -5169.62 1687.67 65 8 14
-2381.57 -5169.62 1675.35 65 8 14
-2390.22 -5169.62 1662.99 66 9 15
-2398.81 -5169.62 1650.58 66 9 15
-2407.33 -5169.62 1638.13 66 9 15
-2415.78 -5169.62 1625.63 66 9 15
-2424.17 -5169.62 1613.09 66 9 15
-2432.5 -5169.62 1600.51 65 9 15
-2440.76 -5169.62 1587.89 65 10 15
-2448.95 -5169.62 1575.22 65 10 15
-2457.08 -5169.62 1562.51 64 9 14
-2465.15 -5169.62 1549.76 64 9 14
-2473.14 -5169.62 1536.96 65 10 15
-2481.07 -5169.62 1524.13 65 10 15
-2488.94 -5169.62 1511.25 65 10 15
-2496.73 -5169.62 1498.34 65 10 15
-2504.46 -5169.62 1485.38 65 10 15
-2512.13 -5169.62 1472.38 64 9 14
-2519.72 -5169.62 1459.35 64 9 14
-2527.25 -5169.62 1446.27 64 9 14
-2534.71 -5169.62 1433.16 63 8 13
-2542.1 -5169.62 1420 63 8 13
-2549.42 -5169.62 1406.81 63 8 13
-2556.68 -5169.62 1393.59 63 8 13
-1565.65 -3156.88 842.905 63 8 13
-1570 -3156.88 834.782 63 8 13
-1574.3 -3156.88 826.635 63 8 13
-2585.01 -5169.62 1340.3 63 7 13
-2591.92 -5169.62 1326.89 64 7 13
-2598.76 -5169.62 1313.44 64 7 13
-1591.09 -3156.88 793.832 65 8 14
-1595.19 -3156.88 785.577 65 8 14
-1599.23 -3156.88 777.301 65 8 14
-1603.24 -3156.88 769.004 65 8 14
-1607.2 -3156.88 760.687 65 8 14
-2715.27 -5169.62 1051.65 64 9 14
-1661.41 -3156.88 633.602 64 10 14
-1664.67 -3156.88 624.985 64 10 15
-1667.89 -3156.88 616.351 64 11 15
-2736.49 -5169.62 995.155 64 12 16
-2741.61 -5169.62 980.962 65 12 16
-2746.65 -5169.62 966.744 66 12 17
-1680.31 -3156.88 581.653 67 12 17
-1683.3 -3156.88 572.938 68 13 18
-1686.24 -3156.88 564.209 68 13 18
-1689.14 -3156.88 555.464 68 13 18
-1692 -3156.88 546.705 67 14 18
-1694.81 -3156.88 537.93 67 15 18
-1697.57 -3156.88 529.142 66 16 19
-147.786 -274.39 45.2268 66 16 19
-148.018 -274.39 44.4605 67 15 19
-148.247 -274.39 43.6929 67 15 19
-151.178 -279.392 43.7067 67 15 19
-151.402 -279.392 42.9229 66 14 18
-151.623 -279.392 42.1378 65 13 18
-151.839 -279.392 41.3516 64 12 17
-152.051 -279.392 40.5643 63 10 16
-149.533 -274.39 39.0638 61 10 15
-149.734 -274.39 38.2884 60 9 14
-149.93 -274.39 37.5121 59 8 13
-150.122 -274.39 36.7347 59 8 13
-150.311 -274.39 35.9564 58 8 13
-150.495 -274.39 35.1771 58 8 12
-150.675 -274.39 34.3968 57 7 12
-153.602 -279.392 34.2285 56 7 11
-153.777 -279.392 33.4322 55 6 10
-146.913 -266.625 31.1436 54 6 9
-147.072 -266.625 30.382 53 6 9
-147.228 -266.625 29.6195 53 6 9
-147.379 -266.625 28.8563 53 7 10
-147.527 -266.625 28.0922 52 7 10
-145.261 -262.274 26.8815 52 6 10
-145.398 -262.274 26.1285 51 6 11
-145.532 -262.274 25.3748 51 6 11
-145.661 -262.274 24.6204 51 6 11
-145.787 -262.274 23.8653 50 6 11
-2875.97 -5169.62 455.509 50 6 11
-146.026 -262.274 22.3533 49 6 10
-146.14 -262.274 21.5964 48 6 10
-146.25 -262.274 20.8389 48 6 10
-146.356 -262.274 20.0808 48 6 10
-146.458 -262.274 19.3222 47 6 10
-146.556 -262.274 18.5631 46 5 9
-149.083 -266.625 18.0988 46 5 9
-150.868 -269.65 17.5227 46 6 9
-150.956 -269.65 16.7407 47 6 8
-153.696 -274.39 16.2389 46 6 9
-161.62 -288.383 16.2298 46 6 9
-161.702 -288.383 15.3921 45 6 9
-165.053 -294.217 14.8485 45 6 9
-2891.73 -5169.62 -341.459 34 4 6
-2889.92 -5169.62 -356.438 34 4 6
-2888.03 -5169.62 -371.407 34 5 7
-2886.07 -5169.62 -386.366 34 5 7
-2884.03 -5169.62 -401.315 34 5 7
-2881.91 -5169.62 -416.253 34 5 7
-2879.72 -5169.62 -431.18 33 4 6
-2877.44 -5169.62 -446.095 33 4 6
-2875.09 -5169.62 -460.998 33 4 6
-2872.67 -5169.62 -475.889 33 4 6
-2870.16 -5169.62 -490.767 33 4 6
2964.6 -5200.14 0 39 6 7
90.8707 -159.396 0.470846 40 6 7
90.867 -159.396 0.941679 41 6 8
90.1154 -158.088 1.4009 42 7 9
90.1069 -158.088 1.8678 43 8 10
90.096 -158.088 2.33466 43 9 10
90.0827 -158.088 2.80145 43 9 10
90.067 -158.088 3.26817 42 8 9
90.0488 -158.088 3.7348 42 8 9
90.0283 -158.088 4.20134 42 8 9
90.0053 -158.088 4.66775 43 8 9
89.9799 -158.088 5.13405 43 8 10
89.9521 -158.088 5.6002 44 9 11
89.9219 -158.088 6.06621 44 8 10
89.8892 -158.088 6.53205 44 7 9
89.8542 -158.088 6.99771 43 6 8
89.8167 -158.088 7.46319 44 5 8
89.7768 -158.088 7.92847 44 5 8
89.7346 -158.088 8.39354 45 6 9
89.6428 -158.088 9.32298 46 7 10
89.5932 -158.088 9.78733 46 7 10
89.5413 -158.088 10.2514 47 6 10
89.487 -158.088 10.7152 47 6 10
89.4303 -158.088 11.1788 47 6 10
89.3712 -158.088 11.642 47 7 10
89.3096 -158.088 12.1049 48 7 10
89.2457 -158.088 12.5675 48 8 9
89.1794 -158.088 13.0297 48 8 9
89.1107 -158.088 13.4916 48 8 9
89.0396 -158.088 13.9532 48 7 9
88.9661 -158.088 14.4143 49 7 9
88.8902 -158.088 14.8751 49 7 9
88.812 -158.088 15.3355 50 7 10
89.4654 -159.396 15.9261 51 7 10
89.3817 -159.396 16.3895 51 7 10
89.2956 -159.396 16.8524 52 7 10
89.2071 -159.396 17.3148 52 7 10
94.4343 -168.908 18.8377 53 8 11
94.3354 -168.908 19.3267 54 8 11
94.234 -168.908 19.8153 54 7 11
93.3481 -167.505 20.1346 55 7 12
93.2426 -167.505 20.618 55 6 11
93.1345 -167.505 21.1009 55 6 10
93.0239 -167.505 21.5832 55 6 10
92.9108 -167.505 22.0649 56 6 9
92.7952 -167.505 22.546 56 7 10
93.4535 -168.908 23.2194 58 7 10
93.3319 -168.908 23.7033 59 7 11
92.4336 -167.505 23.9857 59 7 11
92.3081 -167.505 24.4643 59 7 11
92.1801 -167.505 24.9422 59 7 11
92.8206 -168.908 25.6324 60 7 10
92.6866 -168.908 26.113 61 7 10
92.55 -168.908 26.5929 61 6 10
94.5056 -172.737 27.6857 62 7 10
95.1646 -174.208 28.415 63 7 10
95.0161 -174.208 28.9077 63 7 10
94.8651 -174.208 29.3997 65 7 11
94.7115 -174.208 29.8908 67 8 12
95.094 -175.201 30.5542 68 9 13
94.9345 -175.201 31.0466 68 9 13
95.5877 -176.708 31.8094 68 9 13
95.4216 -176.708 32.3042 69 10 14
95.2529 -176.708 32.7982 71 12 16
95.9052 -178.239 33.5796 73 14 18
95.7299 -178.239 34.0761 75 15 19
95.5521 -178.239 34.5717 76 15 20
95.3717 -178.239 35.0663 77 16 21
95.1887 -178.239 35.56 77 17 21
95.0031 -178.239 36.0527 77 18 22
94.8151 -178.239 36.5445 77 18 22
95.1733 -179.272 37.2501 77 18 22
2755.05 -5200.14 1094.8 77 18 22
2749.34 -5200.14 1109.06 77 18 22
2743.55 -5200.14 1123.29 76 17 21
2737.7 -5200.14 1137.49 75 15 20
2731.77 -5200.14 1151.66 74 14 19
2725.76 -5200.14 1165.8 74 13 18
2719.68 -5200.14 1179.91 73 12 17
2713.53 -5200.14 1193.98 73 12 17
2707.31 -5200.14 1208.03 72 11 16
2701.02 -5200.14 1222.04 71 10 15
2694.65 -5200.14 1236.02 71 9 13
2688.21 -5200.14 1249.96 70 8 11
2681.69 -5200.14 1263.88 69 7 11
2675.11 -5200.14 1277.75 69 7 11
2668.45 -5200.14 1291.6 68 7 11
2661.73 -5200.14 1305.41 67 7 11
2654.93 -5200.14 1319.18 66 7 11
2648.05 -5200.14 1332.92 67 8 12
2641.11 -5200.14 1346.62 67 8 12
2634.1 -5200.14 1360.29 67 8 12
2627.02 -5200.14 1373.92 67 8 12
1599.52 -3174.86 847.123 67 8 12
1595.1 -3174.86 855.399 66 9 12
1590.65 -3174.86 863.653 65 9 12
1586.15 -3174.86 871.883 64 8 12
1581.62 -3174.86 880.09 65 8 13
1577.03 -3174.86 888.273 65 8 14
1572.41 -3174.86 896.433 65 8 14
1567.74 -3174.86 904.568 65 8 13
1563.04 -3174.86 912.679 65 8 13
2552.33 -5200.14 1508.13 65 9 12
2544.49 -5200.14 1521.34 65 9 12
2536.57 -5200.14 1534.5 65 9 12
2528.58 -5200.14 1547.62 65 9 13
2520.53 -5200.14 1560.7 65 9 13
2512.41 -5200.14 1573.74 66 9 14
1528.91 -3174.86 968.758 66 9 15
2495.97 -5200.14 1599.69 66 9 15
2487.64 -5200.14 1612.6 66 9 14
2479.26 -5200.14 1625.47 65 9 12
2470.8 -5200.14 1638.3 65 9 12
2462.28 -5200.14 1651.08 65 9 12
2453.69 -5200.14 1663.81 66 9 13
2445.04 -5200.14 1676.5 68 8 14
2436.32 -5200.14 1689.15 68 8 15
2427.53 -5200.14 1701.75 68 8 15
2418.68 -5200.14 1714.31 68 9 15
2409.77 -5200.14 1726.81 68 9 14
2400.79 -5200.14 1739.28 68 9 13
2391.74 -5200.14 1751.69 68 9 13
2382.63 -5200.14 1764.06 68 9 13
2373.46 -5200.14 1776.38 67 8 12
2364.23 -5200.14 1788.66 67 8 12
2354.93 -5200.14 1800.88 67 8 12
2345.56 -5200.14 1813.06 67 8 12
2336.14 -5200.14 1825.19 67 8 13
2326.65 -5200.14 1837.27 67 9 15
2317.1 -5200.14 1849.3 68 10 16
2307.49 -5200.14 1861.28 68 11 17
2297.81 -5200.14 1873.21 69 11 18
2288.07 -5200.14 1885.09 70 11 18
2278.28 -5200.14 1896.93 70 11 17
2268.42 -5200.14 1908.7 69 10 16
2258.5 -5200.14 1920.43 69 10 16
2248.52 -5200.14 1932.11 69 10 15
2238.47 -5200.14 1943.73 69 10 14
2228.37 -5200.14 1955.31 69 10 14
2218.21 -5200.14 1966.83 69 10 15
2207.99 -5200.14 1978.29 69 11 15
2197.71 -5200.14 1989.71 69 11 16
2187.37 -5200.14 2001.07 69 11 16
2176.97 -5200.14 2012.37 69 11 17
2166.52 -5200.14 2023.63 68 11 17
2156 -5200.14 2034.83 67 10 17
2145.43 -5200.14 2045.97 68 11 16
2134.8 -5200.14 2057.06 70 11 16
2124.11 -5200.14 2068.09 70 11 17
2113.37 -5200.14 2079.07 70 10 17
2102.57 -5200.14 2089.99 70 11 17
2091.71 -5200.14 2100.86 70 11 17
2080.8 -5200.14 2111.67 70 11 17
810.153 -2035.39 830.738 69 11 17
805.838 -2035.39 834.925 69 11 17
801.501 -2035.39 839.089 68 11 17
797.142 -2035.39 843.231 68 11 17
1236.58 -3174.86 1321.72 69 12 17
1229.71 -3174.86 1328.11 69 12 18
783.939 -2035.39 855.519 69 12 18
779.496 -2035.39 859.57 68 12 18
775.031 -2035.39 863.597 68 12 17
770.546 -2035.39 867.601 68 12 18
766.041 -2035.39 871.582 69 13 18
761.514 -2035.39 875.54 69 13 19
756.968 -2035.39 879.474 70 13 19
752.4 -2035.39 883.384 69 12 18
747.813 -2035.39 887.271 68 11 17
743.206 -2035.39 891.133 69 12 18
1152.06 -3174.86 1396.01 69 13 19
1144.81 -3174.86 1401.96 69 13 18
1137.53 -3174.86 1407.87 69 13 18
1130.22 -3174.86 1413.74 69 14 18
1122.88 -3174.86 1419.58 70 14 19
1827.1 -5200.14 2334.64 70 14 19
1814.98 -5200.14 2344.08 70 15 20
1802.81 -5200.14 2353.45 69 14 20
1790.59 -5200.14 2362.76 68 14 19
1778.33 -5200.14 2372.01 68 13 19
1766.01 -5200.14 2381.19 67 13 19
1753.65 -5200.14 2390.31 69 14 20
1741.24 -5200.14 2399.36 69 15 20
1728.79 -5200.14 2408.35 68 14 20
1716.28 -5200.14 2417.28 67 14 20
1703.74 -5200.14 2426.14 68 15 21
1691.14 -5200.14 2434.93 68 15 21
1678.5 -5200.14 2443.66 68 15 20
1665.82 -5200.14 2452.33 67 14 20
1653.09 -5200.14 2460.93 67 15 20
1640.32 -5200.14 2469.46 68 16 21
1627.5 -5200.14 2477.93 69 17 22
1614.64 -5200.14 2486.32 67 15 20
1601.73 -5200.14 2494.66 64 13 18
