ply
format ascii 1.0
element vertex 1358
property float x
property float y
property float z
property uchar red
property uchar green
property uchar blue
end_header
429.491 -100.159 909.366 54 83 117
424.774 -100.159 911.579 55 83 120
459.542 -109.577 999.689 55 83 121
605.743 -146.088 1335.93 47 75 114
598.812 -146.088 1339.05 46 72 113
591.866 -146.088 1342.14 47 72 113
876.258 -218.857 2015.26 44 68 109
1064.79 -269.157 2483.97 36 58 100
1051.91 -269.157 2489.45 32 53 93
1038.99 -269.157 2494.87 35 56 93
1026.05 -269.157 2500.22 37 58 96
1013.08 -269.157 2505.5 37 57 96
1000.09 -269.157 2510.72 35 57 95
987.066 -269.157 2515.87 33 58 98
603.977 -166.901 1563.21 32 60 99
595.87 -166.901 1566.32 37 66 106
587.746 -166.901 1569.39 60 93 131
738.629 -218.857 2069.67 56 91 128
613.334 -184.412 1747.13 55 90 125
717.142 -218.857 2077.21 56 89 125
868.713 -269.157 2559.15 62 95 133
855.441 -269.157 2563.61 70 104 142
684.768 -218.857 2088.1 70 104 142
567.87 -184.412 1762.43 70 104 141
505.676 -166.901 1597.72 69 103 139
435.363 -146.088 1400.75 69 102 137
428.1 -146.088 1402.99 66 99 134
420.824 -146.088 1405.19 67 98 132
522.025 -184.412 1776.55 66 95 129
512.813 -184.412 1779.23 65 96 128
503.587 -184.412 1781.86 64 93 124
586.684 -218.857 2117.76 48 73 102
575.703 -218.857 2120.77 35 58 85
564.707 -218.857 2123.72 36 60 87
553.695 -218.857 2126.62 41 64 93
542.669 -218.857 2129.46 42 62 91
531.628 -218.857 2132.24 42 62 89
347.483 -146.088 1425.1 46 66 91
340.095 -146.088 1426.88 48 68 95
332.697 -146.088 1428.62 47 67 94
325.29 -146.088 1430.32 45 65 90
317.874 -146.088 1431.99 46 66 91
310.45 -146.088 1433.62 47 67 92
303.018 -146.088 1435.21 47 67 93
295.578 -146.088 1436.76 47 67 94
288.129 -146.088 1438.27 47 68 95
280.673 -146.088 1439.74 48 69 96
273.209 -146.088 1441.18 49 70 97
265.738 -146.088 1442.58 50 70 97
258.26 -146.088 1443.93 48 69 95
250.775 -146.088 1445.25 48 70 94
243.283 -146.088 1446.53 53 70 96
235.785 -146.088 1447.77 50 70 96
228.28 -146.088 1448.98 49 69 94
220.769 -146.088 1450.14 47 68 95
213.253 -146.088 1451.26 45 68 98
182.903 -129.878 1291.2 45 68 99
176.21 -129.878 1292.13 44 68 99
190.669 -146.088 1454.4 43 69 101
183.13 -146.088 1455.37 43 69 102
175.587 -146.088 1456.3 43 69 102
168.039 -146.088 1457.19 43 69 102
160.486 -146.088 1458.04 43 69 102
332.793 -317.904 3174.64 42 68 101
299.877 -317.904 3177.92 43 67 101
283.407 -317.904 3179.43 43 68 100
266.929 -317.904 3180.85 42 67 98
250.444 -317.904 3182.19 42 67 98
233.952 -317.904 3183.45 42 67 99
217.455 -317.904 3184.62 43 70 102
200.951 -317.904 3185.7 44 71 102
63.5746 -109.577 1098.42 44 71 102
57.8824 -109.577 1098.73 45 72 102
52.1886 -109.577 1099.01 47 74 104
46.4935 -109.577 1099.27 48 75 104
40.7971 -109.577 1099.5 50 77 106
35.0996 -109.577 1099.69 53 78 109
29.4012 -109.577 1099.86 52 78 108
23.702 -109.577 1100 52 78 108
16.4547 -100.159 1005.55 53 79 109
12.3016 -109.577 1100.18 54 80 110
6.60095 -109.577 1100.23 54 81 111
0.900106 -109.577 1100.25 55 82 112
-4.80077 -109.577 1100.24 58 85 115
-11.589 -120.924 1214.13 62 88 119
-17.8797 -120.924 1214.06 62 88 121
-24.17 -120.924 1213.95 65 91 124
-30.4598 -120.924 1213.81 68 94 127
-39.4697 -129.878 1303.49 68 94 127
-46.2231 -129.878 1303.27 69 95 128
-52.9752 -129.878 1303.02 68 95 128
-67.18 -146.088 1465.31 69 96 128
-66.4751 -129.878 1302.4 68 95 126
-56.4676 -100.159 1004.1 66 94 124
-58.3208 -94.7206 949.289 65 93 123
-63.2387 -94.7206 948.974 68 95 125
-72.0683 -100.159 1003.1 70 96 126
-77.2649 -100.159 1002.72 71 96 126
-82.4593 -100.159 1002.3 73 96 127
-95.8934 -109.577 1096.07 73 98 128
-101.571 -109.577 1095.55 76 101 132
-107.246 -109.577 1095.01 74 100 130
-112.919 -109.577 1094.44 72 98 128
-108.396 -100.159 999.83 71 97 125
-107.408 -94.7206 944.994 72 98 126
-112.302 -94.7206 944.425 74 99 129
-117.194 -94.7206 943.83 73 98 128
-122.083 -94.7206 943.211 76 102 129
-126.969 -94.7206 942.565 79 103 131
-131.851 -94.7206 941.895 82 106 134
-136.729 -94.7206 941.199 83 108 138
-130.915 -87.5705 869.484 80 105 135
-135.419 -87.5705 868.794 73 98 128
-139.918 -87.5705 868.081 83 110 139
-144.414 -87.5705 867.344 89 115 145
-161.065 -94.7206 937.341 89 115 144
-165.919 -94.7206 936.494 90 117 146
-170.769 -94.7206 935.622 90 117 146
-185.699 -100.159 988.395 87 114 143
-190.817 -100.159 987.42 76 103 132
-195.931 -100.159 986.418 81 108 137
-156.047 -77.7439 764.861 89 116 145
-160.008 -77.7439 764.042 94 119 149
-163.965 -77.7439 763.203 93 118 148
-180.055 -83.3636 817.449 94 117 148
-184.288 -83.3636 816.505 82 106 135
-198.03 -87.5705 856.694 71 94 122
-202.466 -87.5705 855.657 65 86 115
-206.897 -87.5705 854.596 60 80 109
-211.322 -87.5705 853.513 55 75 101
-215.741 -87.5705 852.406 49 69 93
-220.155 -87.5705 851.277 49 67 91
-224.563 -87.5705 850.125 43 61 85
-228.965 -87.5705 848.95 40 56 79
-233.361 -87.5705 847.752 39 55 78
-237.75 -87.5705 846.532 35 51 74
-230.501 -83.3636 804.681 32 49 70
-234.667 -83.3636 803.476 32 48 68
-238.827 -83.3636 802.249 34 50 68
-242.981 -83.3636 801.001 35 52 70
-247.128 -83.3636 799.731 37 52 71
-251.269 -83.3636 798.44 36 51 70
-255.402 -83.3636 797.128 34 49 68
-259.529 -83.3636 795.793 33 48 67
-263.649 -83.3636 794.438 30 43 60
-249.711 -77.7439 739.599 30 43 62
-253.54 -77.7439 738.295 28 42 61
-257.362 -77.7439 736.972 25 41 60
-244.618 -72.8147 688.987 28 44 64
-248.184 -72.8147 687.711 36 51 74
-268.786 -77.7439 732.882 45 60 83
-272.58 -77.7439 731.48 50 65 87
-276.366 -77.7439 730.058 49 65 87
-280.146 -77.7439 728.616 47 62 86
-283.917 -77.7439 727.154 47 63 86
-287.681 -77.7439 725.674 49 65 89
-291.437 -77.7439 724.173 48 65 90
-316.523 -83.3636 774.891 56 73 98
-320.534 -83.3636 773.24 60 80 105
-324.536 -83.3636 771.569 57 78 104
-345.108 -87.5705 808.728 55 76 103
-349.294 -87.5705 806.929 57 78 106
-336.49 -83.3636 766.431 61 83 113
-340.456 -83.3636 764.678 66 88 118
-321.196 -77.7439 711.474 68 90 120
-304.28 -72.8147 664.797 69 90 120
-307.721 -72.8147 663.211 67 88 118
-311.153 -72.8147 661.608 67 87 119
-314.577 -72.8147 659.987 66 89 120
-347.438 -65.8153 562.139 35 52 76
-350.346 -65.8153 560.331 38 57 81
-353.245 -65.8153 558.508 42 62 88
-356.134 -65.8153 556.67 53 73 100
-359.014 -65.8153 554.818 63 83 110
-361.884 -65.8153 552.95 63 83 108
-364.744 -65.8153 551.068 58 76 102
-367.594 -65.8153 549.17 55 71 97
-370.435 -65.8153 547.258 51 69 95
-373.265 -65.8153 545.332 50 70 94
-376.086 -65.8153 543.39 52 71 95
-378.896 -65.8153 541.434 51 69 93
-381.697 -65.8153 539.464 49 66 90
-363.377 -62.2018 507.97 52 68 90
-366.004 -62.2018 506.08 52 67 87
-368.622 -62.2018 504.177 51 64 81
-371.229 -62.2018 502.26 45 57 73
-373.827 -62.2018 500.33 35 47 63
-398.281 -65.8153 527.339 33 43 58
-401.008 -65.8153 525.268 35 45 58
-403.724 -65.8153 523.183 39 47 62
-406.429 -65.8153 521.084 37 46 59
-386.662 -62.2018 490.478 34 44 56
-389.198 -62.2018 488.468 33 43 54
-391.724 -62.2018 486.445 33 43 53
-394.239 -62.2018 484.409 35 45 55
-396.744 -62.2018 482.36 37 47 56
-399.238 -62.2018 480.297 40 49 58
-401.721 -62.2018 478.222 43 52 61
-404.193 -62.2018 476.134 46 55 64
-406.655 -62.2018 474.034 42 51 60
-432.872 -65.8153 499.335 37 46 55
-435.453 -65.8153 497.086 36 45 54
-1498.7 -218.857 1607.16 33 42 51
-1507.01 -218.857 1599.38 31 39 50
-1515.28 -218.857 1591.55 26 34 45
-1523.5 -218.857 1583.67 25 34 43
-1531.69 -218.857 1575.76 25 33 44
-1539.83 -218.857 1567.8 26 35 45
-1547.94 -218.857 1559.8 26 36 46
-1556 -218.857 1551.76 26 36 45
-1564.02 -218.857 1543.68 24 34 44
-542.888 -69.8508 444.052 31 40 47
-545.182 -69.8508 441.233 28 37 44
-547.461 -69.8508 438.403 24 33 40
-549.725 -69.8508 435.56 28 37 44
-551.974 -69.8508 432.706 25 34 41
-554.209 -69.8508 429.84 24 33 40
-556.429 -69.8508 426.963 25 34 41
-558.634 -69.8508 424.074 26 35 42
-560.823 -69.8508 421.174 27 36 43
-562.998 -69.8508 418.262 32 41 48
-565.158 -69.8508 415.34 38 47 53
-567.302 -69.8508 412.406 32 41 47
-569.431 -69.8508 409.461 26 35 40
-571.545 -69.8508 406.505 25 34 39
-573.644 -69.8508 403.538 26 35 40
-9577.66 -1162.02 6663.62 28 37 42
-9612.06 -1162.02 6613.91 26 35 40
-93.3725 -11.248 63.5378 25 34 39
-93.7005 -11.248 63.0532 28 36 41
-94.026 -11.248 62.5668 31 38 43
-94.3489 -11.248 62.0788 33 41 46
-94.6693 -11.248 61.5891 36 44 50
-92.9861 -11.0111 59.8106 40 48 54
-90.3225 -10.6603 57.438 47 53 59
-90.6189 -10.6603 56.9692 68 71 80
-90.9129 -10.6603 56.4989 83 84 94
-91.2044 -10.6603 56.0271 91 90 99
-91.4935 -10.6603 55.5538 90 89 97
-88.8058 -10.3148 53.294 83 81 88
-87.1161 -10.0873 51.6679 74 72 78
-104.49 -11.852 56.9549 72 69 76
-104.784 -11.852 56.4127 73 70 77
-108.361 -12.2227 57.6167 72 69 77
-105.363 -11.852 55.3239 71 68 78
-105.648 -11.852 54.7772 70 67 78
-109.244 -12.2227 55.9254 71 68 79
-91.294 -9.19815 13.975 83 77 81
-91.3652 -9.19815 13.5018 86 79 84
-91.434 -9.19815 13.0282 90 82 88
-93.682 -9.41747 12.8537 74 67 74
-93.7474 -9.41747 12.3681 52 47 55
-93.8102 -9.41747 11.8822 42 39 46
-93.8705 -9.41747 11.3959 54 54 59
-93.9283 -9.41747 10.9094 71 71 74
-11596.6 -1162.02 1286.04 83 82 85
-11603.1 -1162.02 1225.93 89 87 90
-128.437 -12.8558 12.8976 89 87 90
-128.502 -12.8558 12.2319 89 87 90
-128.564 -12.8558 11.5659 89 87 90
-836.963 -83.3636 -11.6414 123 118 124
-836.891 -83.3636 -15.9778 106 100 108
-836.797 -83.3636 -20.314 71 65 76
-836.681 -83.3636 -24.6494 47 43 50
-780.149 -77.7439 -27.0304 37 36 41
-779.998 -77.7439 -31.0723 54 55 59
-779.827 -77.7439 -35.1134 69 70 75
-69.0185 -6.8937 -5.26146 87 87 95
-68.9903 -6.8937 -5.61901 88 88 96
-72.0025 -7.19781 -6.24004 88 88 96
11678.5 -1102.01 0 51 58 80
287.453 -27.1252 1.48944 57 67 88
293.593 -27.7057 3.04258 73 85 103
293.574 -27.7057 4.56377 91 105 121
293.546 -27.7057 6.08484 97 113 125
293.51 -27.7057 7.60575 86 105 113
293.467 -27.7057 9.12645 78 97 102
7008.32 -661.759 254.304 70 88 92
7006.91 -661.759 290.614 60 77 79
7005.31 -661.759 326.916 47 60 60
4380.85 -414.061 249.961 39 40 50
4379.49 -414.061 272.657 37 38 49
4378.02 -414.061 295.345 35 37 49
4376.43 -414.061 318.025 31 33 45
6991.76 -661.759 544.508 39 41 54
6988.85 -661.759 580.728 60 62 73
11633.2 -1102.01 1027.37 78 82 91
6982.45 -661.759 653.121 85 89 98
6978.98 -661.759 689.291 80 84 93
4364.43 -414.061 453.907 76 80 90
3175.4 -301.422 346.887 75 79 90
2686.79 -255.189 307.605 76 80 91
2685.16 -255.189 321.523 77 81 92
2181.8 -207.483 272.724 77 81 92
2180.36 -207.483 284.026 76 80 92
2178.86 -207.483 295.319 76 80 94
2177.3 -207.483 306.605 73 78 92
1833.11 -174.814 267.83 72 78 93
1831.7 -174.814 277.325 72 78 95
1830.24 -174.814 286.812 73 78 97
1828.73 -174.814 296.291 74 79 99
1827.17 -174.814 305.763 75 78 100
1445.98 -138.465 249.682 74 77 98
1444.66 -138.465 257.171 83 88 115
1443.31 -138.465 264.653 100 112 139
1441.92 -138.465 272.128 109 126 151
1806.78 -174.814 409.351 101 119 142
1804.64 -174.814 418.707 102 121 144
1802.44 -174.814 428.052 103 124 146
1629.17 -158.206 395.832 101 121 144
1627.1 -158.206 404.268 98 119 142
1624.99 -158.206 412.694 99 121 139
1622.83 -158.206 421.108 103 126 143
1620.62 -158.206 429.511 104 127 144
1618.37 -158.206 437.902 104 127 143
1616.08 -158.206 446.282 105 127 143
1608.95 -158.206 471.348 86 104 120
1606.49 -158.206 479.678 66 83 103
1603.98 -158.206 487.996 85 102 127
1601.43 -158.206 496.3 90 110 135
1598.84 -158.206 504.591 97 117 141
1763.77 -174.814 566.708 102 123 146
1760.81 -174.814 575.839 105 127 148
1757.8 -174.814 584.955 105 127 148
2561.53 -255.189 867.186 107 128 148
2557 -255.189 880.447 112 133 150
2552.41 -255.189 893.684 111 132 147
2547.74 -255.189 906.897 103 122 138
2067.61 -207.483 748.081 101 117 139
2063.71 -207.483 758.785 99 117 138
1735.43 -174.814 648.311 99 117 138
1732.05 -174.814 657.295 104 124 142
1728.62 -174.814 666.26 112 133 149
1725.14 -174.814 675.208 110 131 146
1721.62 -174.814 684.138 100 121 132
1718.05 -174.814 693.049 86 105 111
1714.44 -174.814 701.942 60 75 82
1710.78 -174.814 710.815 35 43 57
1707.07 -174.814 719.67 32 36 55
2021.64 -207.483 864.648 29 34 53
2480.92 -255.189 1076.32 38 43 62
2475.31 -255.189 1089.16 61 67 89
2007.95 -207.483 895.967 75 79 105
2003.28 -207.483 906.359 74 77 110
1683.88 -174.814 772.385 76 77 117
1679.85 -174.814 781.099 76 75 120
1675.78 -174.814 789.793 76 77 120
1671.67 -174.814 798.465 66 69 95
1509.09 -158.206 730.437 73 75 85
789.395 -82.9656 387.148 113 113 118
787.379 -82.9656 391.233 149 149 154
785.341 -82.9656 395.307 162 164 168
10404.2 -1102.01 5304.76 180 183 186
10376.5 -1102.01 5358.6 200 201 203
10348.6 -1102.01 5412.29 212 214 213
10320.5 -1102.01 5465.84 221 222 221
10292 -1102.01 5519.24 240 242 236
10263.3 -1102.01 5572.49 225 233 215
10234.2 -1102.01 5625.6 198 211 192
10205 -1102.01 5678.55 172 184 171
1460.79 -158.206 822.797 118 126 118
1456.5 -158.206 830.354 78 83 84
1270.98 -138.465 733.341 70 73 79
1267.17 -138.465 739.916 72 75 82
9832.39 -1102.01 6301.68 131 117 113
9799.6 -1102.01 6352.55 137 127 118
9766.56 -1102.01 6403.24 145 135 126
9733.25 -1102.01 6453.75 142 128 120
2653.05 -301.422 1779 155 138 130
2643.8 -301.422 1792.72 153 131 124
2230.39 -255.189 1529.32 146 125 119
2222.43 -255.189 1540.86 177 158 147
2214.42 -255.189 1552.35 200 183 172
2206.35 -255.189 1563.81 182 169 153
2198.21 -255.189 1575.22 193 181 164
3553.46 -414.061 2574.34 200 192 177
3540.07 -414.061 2592.72 161 156 145
3526.59 -414.061 2611.03 99 96 94
2557.35 -301.422 1914.02 65 66 75
2547.4 -301.422 1927.24 73 79 91
2537.38 -301.422 1940.41 79 90 102
998.126 -123.092 839.849 74 87 104
993.761 -123.092 845.01 76 89 107
8857.6 -1102.01 7611.18 83 94 114
8818.04 -1102.01 7656.97 87 100 117
1102.97 -138.465 967.808 85 98 115
908.698 -114.6 805.717 87 99 115
904.511 -114.6 810.415 97 107 123
900.3 -114.6 815.09 106 116 129
896.065 -114.6 819.744 111 120 132
957.891 -123.092 885.465 110 118 131
1072.35 -138.465 1001.62 103 113 128
1067.15 -138.465 1007.17 97 108 125
1061.91 -138.465 1012.68 90 101 118
1056.65 -138.465 1018.17 78 93 112
1051.36 -138.465 1023.63 73 88 108
1195.17 -158.206 1175.78 71 89 109
1189.07 -158.206 1181.95 65 87 110
1182.93 -158.206 1188.1 58 83 104
1176.75 -158.206 1194.21 66 90 112
1170.55 -158.206 1200.29 80 102 123
1526.97 -207.483 1582.09 83 105 124
1518.75 -207.483 1589.98 81 100 118
1510.49 -207.483 1597.83 84 103 119
1502.19 -207.483 1605.63 97 112 128
1837.33 -255.189 1984.36 108 117 133
1827.03 -255.189 1993.85 101 110 127
1816.67 -255.189 2003.29 91 103 122
2133.51 -301.422 2377.32 93 105 124
2121.17 -301.422 2388.34 95 106 125
2108.76 -301.422 2399.3 86 98 117
2879.67 -414.061 3310.86 71 84 104
2862.48 -414.061 3325.74 63 75 97
4547.26 -661.759 5338.88 60 75 98
2058.59 -301.422 2442.49 63 78 101
2045.9 -301.422 2453.12 68 84 109
2033.17 -301.422 2463.69 71 89 113
2020.37 -301.422 2474.19 68 84 109
2007.53 -301.422 2484.62 68 83 108
1994.62 -301.422 2494.99 71 87 113
2722.2 -414.061 3441.5 78 95 120
7197.52 -1102.01 9196.89 86 100 123
7149.77 -1102.01 9234.06 93 106 123
7101.83 -1102.01 9270.98 105 115 126
4235.75 -661.759 5589.25 117 123 132
1916.11 -301.422 2555.79 122 127 137
1103.58 -174.814 1488 114 122 135
991.742 -158.206 1351.79 90 104 121
984.724 -158.206 1356.91 67 85 107
977.68 -158.206 1362 62 80 106
1072.5 -174.814 1510.55 65 83 110
1554.16 -255.189 2213.15 63 83 107
1542.68 -255.189 2221.17 61 81 108
1244.91 -207.483 1812.41 89 108 133
1235.5 -207.483 1818.84 176 188 204
1226.06 -207.483 1825.22 146 157 171
1025.03 -174.814 1543.16 91 111 128
920.4 -158.206 1401.34 88 109 128
799.189 -138.465 1230.64 89 112 130
704.779 -123.092 1097.67 79 104 113
699.082 -123.092 1101.31 73 100 104
693.366 -123.092 1104.92 76 104 103
640.192 -114.6 1032.02 78 106 102
634.836 -114.6 1035.32 75 102 99
629.463 -114.6 1038.6 69 96 96
624.073 -114.6 1041.85 63 89 97
447.89 -82.9656 756.587 59 83 101
443.964 -82.9656 758.897 55 77 107
440.025 -82.9656 761.187 50 76 103
436.075 -82.9656 763.457 46 73 103
1329.11 -255.189 2355.19 46 73 101
2096.91 -414.061 3854.51 46 73 102
1511.92 -301.422 2813.82 49 76 104
1497.32 -301.422 2821.62 52 81 109
2036.75 -414.061 3886.64 56 86 112
3222.93 -661.759 6228.48 60 89 115
739.478 -158.206 1504.68 59 86 121
438.919 -94.9054 904.923 58 87 121
410.624 -89.7471 857.878 56 85 119
406.173 -89.7471 859.994 54 83 117
401.712 -89.7471 862.087 57 84 120
420.071 -94.9054 913.825 57 83 120
538.682 -123.092 1188.03 52 79 116
532.519 -123.092 1190.81 47 71 111
490.029 -114.6 1111.21 44 67 108
585.114 -138.465 1345.67 42 65 106
866.302 -207.483 2020.93 40 62 102
1052.6 -255.189 2491.08 38 59 97
1039.67 -255.189 2496.5 37 57 92
1026.72 -255.189 2501.86 36 56 92
1013.75 -255.189 2507.14 35 55 92
1000.74 -255.189 2512.36 33 55 92
596.132 -158.206 1567.01 33 61 101
948.461 -255.189 2532.56 56 90 128
935.326 -255.189 2537.44 60 96 132
922.166 -255.189 2542.26 58 93 130
908.981 -255.189 2547 55 91 127
613.637 -174.814 1747.99 54 87 123
604.572 -174.814 1751.15 55 86 122
595.49 -174.814 1754.26 63 94 131
695.977 -207.483 2085.73 73 106 144
577.279 -174.814 1760.33 75 108 145
568.15 -174.814 1763.3 73 107 143
442.774 -138.465 1398.98 75 108 144
435.52 -138.465 1401.25 75 106 141
428.253 -138.465 1403.49 73 104 140
420.975 -138.465 1405.69 72 103 135
522.283 -174.814 1777.43 72 99 133
513.066 -174.814 1780.11 72 101 132
503.836 -174.814 1782.74 71 100 130
576.033 -207.483 2121.98 34 56 84
565.031 -207.483 2124.94 33 57 84
554.013 -207.483 2127.84 36 59 87
542.98 -207.483 2130.68 39 60 88
354.99 -138.465 1423.79 43 63 90
309.014 -123.092 1267.33 47 67 93
302.443 -123.092 1268.91 49 69 96
295.864 -123.092 1270.46 47 67 94
289.278 -123.092 1271.98 46 66 91
282.683 -123.092 1273.46 47 67 92
276.081 -123.092 1274.91 47 67 93
269.471 -123.092 1276.32 46 66 93
262.855 -123.092 1277.7 45 65 92
288.233 -138.465 1438.79 45 66 93
280.774 -138.465 1440.26 46 67 94
273.307 -138.465 1441.7 47 68 95
236.319 -123.092 1282.87 49 69 96
229.668 -123.092 1284.08 50 70 97
223.012 -123.092 1285.25 48 70 95
216.35 -123.092 1286.39 53 70 96
209.681 -123.092 1287.49 50 70 97
203.008 -123.092 1288.56 50 71 96
196.328 -123.092 1289.6 49 70 96
189.644 -123.092 1290.6 46 69 99
182.954 -123.092 1291.56 47 70 101
176.259 -123.092 1292.49 47 71 102
169.56 -123.092 1293.39 45 70 102
162.856 -123.092 1294.25 41 67 100
156.148 -123.092 1295.08 40 66 99
149.436 -123.092 1295.87 42 68 101
142.719 -123.092 1296.62 47 73 106
283.607 -301.422 3181.68 61 86 118
267.118 -301.422 3183.11 61 86 117
250.621 -301.422 3184.45 61 86 117
234.118 -301.422 3185.7 62 88 120
217.609 -301.422 3186.87 64 90 122
201.093 -301.422 3187.96 64 91 121
63.5837 -103.838 1098.57 65 92 122
52.9108 -94.9054 1004.36 70 97 126
47.7061 -94.9054 1004.62 75 102 132
42.5001 -94.9054 1004.85 74 101 130
40.803 -103.838 1099.65 76 103 132
35.1046 -103.838 1099.85 78 104 134
29.4054 -103.838 1100.02 79 104 134
23.7054 -103.838 1100.16 80 105 135
18.0046 -103.838 1100.26 80 105 135
12.3034 -103.838 1100.34 81 106 136
6.6019 -103.838 1100.39 81 107 137
0.822795 -94.9054 1005.75 80 109 138
-4.38842 -94.9054 1005.74 78 106 135
-10.503 -103.838 1100.36 77 103 134
-16.2043 -103.838 1100.29 77 103 136
-21.9051 -103.838 1100.19 86 112 145
-25.2308 -94.9054 1005.43 92 118 151
-30.4401 -94.9054 1005.29 93 119 152
-33.7109 -89.7471 950.489 95 121 154
-52.99 -123.092 1303.38 96 123 156
-59.7426 -123.092 1303.09 95 124 156
-61.9062 -114.6 1212.88 96 124 155
-68.1898 -114.6 1212.54 97 124 154
-58.3213 -89.7471 949.297 100 127 157
-63.2392 -89.7471 948.982 101 128 158
-68.1556 -89.7471 948.642 104 129 159
-77.2697 -94.9054 1002.78 107 132 162
-82.4645 -94.9054 1002.36 108 133 163
-95.9072 -103.838 1096.22 109 134 164
-101.586 -103.838 1095.71 112 137 167
-107.262 -103.838 1095.17 112 137 167
-112.935 -103.838 1094.6 109 134 164
-108.402 -94.9054 999.892 111 135 164
-107.408 -89.7471 945.002 116 140 168
-112.303 -89.7471 944.433 118 142 170
-117.195 -89.7471 943.839 116 140 168
-122.084 -89.7471 943.219 115 139 167
-126.97 -89.7471 942.573 115 139 167
-131.852 -89.7471 941.903 114 138 166
-126.399 -82.9656 870.087 112 136 165
-130.905 -82.9656 869.421 100 124 152
-135.409 -82.9656 868.731 85 109 138
-139.908 -82.9656 868.017 103 129 157
-144.404 -82.9656 867.281 112 138 166
-148.896 -82.9656 866.521 109 135 164
-165.921 -89.7471 936.502 108 134 163
-170.771 -89.7471 935.63 109 135 163
-185.71 -94.9054 988.457 105 132 160
-2215.85 -1102.01 11466.3 90 116 145
-195.943 -94.9054 986.48 95 124 152
-146.111 -68.9707 716.157 107 134 162
-149.819 -68.9707 715.391 107 133 162
-163.931 -73.6457 763.043 108 134 162
-180.032 -78.9757 817.345 115 139 168
-184.265 -78.9757 816.401 100 123 152
-188.492 -78.9757 815.435 86 108 137
-202.451 -82.9656 855.595 80 101 130
-206.882 -82.9656 854.534 77 98 126
-211.307 -82.9656 853.451 72 92 118
-215.726 -82.9656 852.344 62 82 107
-209.552 -78.9757 810.279 61 79 103
-213.748 -78.9757 809.182 60 78 102
-228.948 -82.9656 848.888 51 68 91
-233.344 -82.9656 847.691 45 61 84
-237.733 -82.9656 846.47 39 55 78
-261.906 -89.7471 914.315 36 53 74
-234.638 -78.9757 803.374 35 51 70
-238.797 -78.9757 802.147 34 50 69
-212.172 -68.9707 699.437 34 50 69
-206.998 -66.1596 669.867 35 50 69
-210.466 -66.1596 668.785 34 49 68
-268.271 -82.9656 837.293 33 47 66
-3620.96 -1102.01 11103 32 45 64
-276.933 -82.9656 834.468 28 41 58
-249.659 -73.6457 739.444 30 43 62
-253.487 -73.6457 738.141 27 41 60
-240.974 -68.9707 690.044 25 40 59
-244.546 -68.9707 688.786 28 43 63
-248.112 -68.9707 687.51 31 46 68
-251.671 -68.9707 686.215 33 48 71
-272.523 -73.6457 731.327 34 49 71
-276.309 -73.6457 729.905 34 49 71
-280.087 -73.6457 728.463 36 51 74
-283.858 -73.6457 727.002 38 54 77
-287.621 -73.6457 725.522 43 59 82
-291.376 -73.6457 724.022 44 62 86
-295.124 -73.6457 722.502 55 72 98
-320.493 -78.9757 773.142 55 75 100
-426.648 -103.838 1014.34 52 72 99
-345.083 -82.9656 808.669 55 75 104
-332.472 -78.9757 768.067 61 81 110
-336.447 -78.9757 766.334 65 86 115
-317.439 -73.6457 712.98 68 89 118
-321.129 -73.6457 711.325 69 90 119
-304.191 -68.9707 664.603 68 89 117
-307.631 -68.9707 663.018 66 87 114
-311.062 -68.9707 661.415 66 87 116
-347.289 -62.3322 561.898 43 60 84
-350.196 -62.3322 560.091 51 71 96
-353.093 -62.3322 558.269 58 78 105
-355.981 -62.3322 556.432 69 89 116
-358.859 -62.3322 554.58 83 103 130
-361.728 -62.3322 552.713 83 103 129
-344.541 -58.905 520.545 82 100 128
-347.234 -58.905 518.753 80 98 124
-349.917 -58.905 516.947 72 91 117
-352.591 -58.905 515.127 65 85 109
-342.632 -56.812 495.054 60 79 103
-345.193 -56.812 493.273 57 75 99
-347.744 -56.812 491.477 58 75 99
-350.286 -56.812 489.669 60 76 98
-352.818 -56.812 487.847 59 73 94
-355.341 -56.812 486.013 54 67 85
-357.855 -56.812 484.165 46 58 75
-360.359 -56.812 482.304 40 52 68
-362.853 -56.812 480.431 37 46 61
-346.754 -53.9222 454.203 33 43 56
-367.812 -56.812 476.645 33 41 56
-370.277 -56.812 474.733 31 40 54
-386.464 -58.905 490.227 31 41 53
-388.999 -58.905 488.218 33 43 54
-391.523 -58.905 486.196 33 43 53
-394.037 -58.905 484.16 33 43 53
-396.54 -58.905 482.112 34 44 53
-399.033 -58.905 480.051 37 46 55
-401.515 -58.905 477.977 39 48 57
-403.986 -58.905 475.89 43 52 61
-430.094 -62.3322 501.356 39 48 57
-432.686 -62.3322 499.121 34 43 52
-307.396 -44.0205 350.903 36 45 54
-309.21 -44.0205 349.306 39 47 57
-311.015 -44.0205 347.699 40 48 59
-1844.36 -255.189 1977.83 35 43 53
-1507.88 -207.483 1600.29 34 42 53
-1516.15 -207.483 1592.46 32 40 51
-1524.38 -207.483 1584.58 30 39 48
-1532.57 -207.483 1576.66 29 39 49
-1540.72 -207.483 1568.7 28 38 48
-1548.83 -207.483 1560.7 29 39 48
-1556.89 -207.483 1552.65 27 37 46
-1318.51 -174.814 1301.36 25 35 45
-542.7 -66.1596 443.898 29 38 45
-544.993 -66.1596 441.081 29 38 45
-547.271 -66.1596 438.251 26 35 42
-549.535 -66.1596 435.409 29 38 45
-551.783 -66.1596 432.556 24 33 40
-554.017 -66.1596 429.691 22 31 38
-556.236 -66.1596 426.815 23 32 39
-558.44 -66.1596 423.927 25 34 41
-560.629 -66.1596 421.028 26 35 42
-562.803 -66.1596 418.117 28 37 44
-564.962 -66.1596 415.196 30 39 45
-567.106 -66.1596 412.263 28 37 42
-569.234 -66.1596 409.319 26 35 40
-571.347 -66.1596 406.364 27 36 41
-573.445 -66.1596 403.398 27 36 41
-9586.51 -1102.01 6669.78 26 35 40
-9620.94 -1102.01 6620.02 25 34 39
-92.6825 -10.5786 63.0683 27 34 40
-93.0081 -10.5786 62.5872 29 36 40
-93.3311 -10.5786 62.1045 30 38 41
-93.6516 -10.5786 61.62 30 38 42
-91.9733 -10.3538 59.8352 29 36 42
-89.3168 -10.0211 57.4505 34 41 47
-89.6133 -10.0211 56.9869 62 69 75
-86.9677 -9.69349 54.6738 89 92 101
-87.2499 -9.69349 54.2225 88 91 100
-87.5296 -9.69349 53.7697 94 94 102
-87.8071 -9.69349 53.3154 90 89 97
-86.1215 -9.47773 51.6831 77 75 82
-86.3882 -9.47773 51.2362 65 63 70
-83.7283 -9.15789 49.074 63 62 67
-83.9814 -9.15789 48.6395 68 66 71
-109.417 -11.861 61.8659 71 68 76
-109.736 -11.861 61.2981 71 68 75
-110.052 -11.861 60.7287 73 70 77
-107.034 -11.503 58.3419 74 71 79
-107.335 -11.503 57.7865 74 71 79
-107.633 -11.503 57.2296 74 71 80
-104.629 -11.1514 54.9387 73 70 81
-104.912 -11.1514 54.3959 72 69 80
-105.193 -11.1514 53.8515 72 68 79
-90.4486 -8.63439 13.8456 89 83 86
-90.5191 -8.63439 13.3768 93 87 91
-90.5872 -8.63439 12.9076 92 86 91
-90.6529 -8.63439 12.438 78 73 79
-90.7161 -8.63439 11.9682 50 46 53
-90.7769 -8.63439 11.498 44 42 48
-90.8352 -8.63439 11.0275 56 56 60
-90.8912 -8.63439 10.5566 74 74 76
-90.9446 -8.63439 10.0856 85 83 86
-11613.8 -1102.01 1227.07 89 87 90
-127.623 -12.1034 12.8158 88 86 89
-127.688 -12.1034 12.1543 89 87 90
-127.749 -12.1034 11.4926 89 87 90
-836.691 -78.9757 -20.3114 83 78 89
-836.574 -78.9757 -24.6463 42 39 46
-779.985 -73.6457 -27.0248 39 38 43
-779.835 -73.6457 -31.0658 55 56 61
-779.664 -73.6457 -35.1061 71 72 76
-68.1425 -6.44877 -5.19468 88 87 95
-68.1147 -6.44877 -5.54769 87 87 95
-71.1303 -6.73721 -6.16446 88 88 96
-71.0259 -6.73721 -7.26935 87 90 99
-67.9481 -6.44877 -7.3103 88 91 100
-67.9093 -6.44877 -7.66226 88 91 100
-67.8687 -6.44877 -8.01403 88 91 101
11688.7 -1041.9 0 49 55 73
292.936 -26.112 1.51785 51 58 74
292.924 -26.112 3.03565 59 68 83
292.905 -26.112 4.55338 78 91 103
292.877 -26.112 6.07098 96 111 122
292.842 -26.112 7.58842 91 108 117
292.799 -26.112 9.10566 79 98 104
292.748 -26.112 10.6226 70 87 91
7012.63 -625.626 290.851 62 77 80
7011.03 -625.626 327.183 49 61 62
4384.07 -391.421 250.145 35 37 48
4382.71 -391.421 272.857 33 35 47
4381.24 -391.421 295.562 31 33 45
4379.65 -391.421 318.259 28 30 42
4377.94 -391.421 340.948 36 38 51
6994.55 -625.626 581.202 56 58 70
6991.45 -625.626 617.436 73 76 87
6988.15 -625.626 653.654 78 82 91
6984.67 -625.626 689.854 76 80 89
4367.64 -391.421 454.241 75 79 89
3177.48 -284.918 347.114 74 78 89
2688.4 -241.203 307.79 73 77 88
2686.77 -241.203 321.716 74 78 89
2182.94 -196.096 272.866 74 78 89
2181.49 -196.096 284.173 74 78 90
2179.99 -196.096 295.473 74 78 90
2178.43 -196.096 306.764 72 77 90
1833.92 -165.207 267.948 70 76 91
1832.5 -165.207 277.447 70 77 93
1831.04 -165.207 286.938 72 79 97
1655.63 -149.503 268.246 74 79 99
1447.69 -130.838 242.261 72 77 97
1446.42 -130.838 249.758 72 77 97
1445.1 -130.838 257.25 82 88 115
1443.75 -130.838 264.734 99 110 138
1442.36 -130.838 272.211 110 127 151
1440.93 -130.838 279.681 109 125 148
1637.66 -149.503 362.123 105 123 145
1807.58 -165.207 409.531 104 122 144
1805.43 -165.207 418.891 103 122 144
1631.83 -149.503 387.535 100 121 142
1629.8 -149.503 395.985 100 121 142
1627.73 -149.503 404.424 100 121 142
1625.61 -149.503 412.853 103 124 144
1623.45 -149.503 421.27 106 129 146
1621.25 -149.503 429.676 108 131 147
1619 -149.503 438.071 109 131 146
1616.71 -149.503 446.454 109 132 145
1614.37 -149.503 454.825 108 132 144
1778.64 -165.207 521.057 88 105 123
1775.91 -165.207 530.266 68 85 105
1604.6 -149.503 488.184 84 100 125
1602.05 -149.503 496.491 88 107 133
1599.45 -149.503 504.786 94 116 139
1596.82 -149.503 513.066 104 124 148
1594.14 -149.503 521.333 107 128 150
1758.57 -165.207 585.212 105 126 147
2563.07 -241.203 867.707 103 124 144
2558.54 -241.203 880.976 103 124 142
2553.94 -241.203 894.221 103 122 139
2549.27 -241.203 907.442 102 121 138
2068.68 -196.096 748.471 102 120 140
2064.78 -196.096 759.179 101 119 139
1736.19 -165.207 648.596 98 117 135
1732.81 -165.207 657.584 100 119 136
1729.38 -165.207 666.553 103 123 139
1725.9 -165.207 675.505 104 126 140
1722.38 -165.207 684.438 101 122 133
1718.81 -165.207 693.354 89 107 112
1715.19 -165.207 702.25 64 77 83
1711.53 -165.207 711.128 37 44 58
2027.14 -196.096 854.606 36 41 60
2487.96 -241.203 1064.09 35 40 59
2482.41 -241.203 1076.97 39 46 65
2476.8 -241.203 1089.82 63 69 91
2009 -196.096 896.433 76 80 106
1528.1 -149.503 691.367 75 78 109
1524.49 -149.503 699.275 73 75 114
1520.85 -149.503 707.165 77 76 121
1517.16 -149.503 715.035 84 84 127
1513.44 -149.503 722.887 86 89 113
791.29 -78.3617 383.004 85 88 97
789.295 -78.3617 387.099 86 88 93
787.279 -78.3617 391.183 81 83 87
785.241 -78.3617 395.257 72 76 80
783.183 -78.3617 399.321 91 94 98
10385.6 -1041.9 5363.26 90 91 93
10357.6 -1041.9 5417 88 88 90
10329.4 -1041.9 5470.59 152 152 152
10300.9 -1041.9 5524.04 206 211 205
10272.2 -1041.9 5577.34 190 199 181
10243.1 -1041.9 5630.49 179 192 170
10213.8 -1041.9 5683.49 169 180 167
1461.35 -149.503 823.114 157 167 158
1457.07 -149.503 830.675 106 112 111
1452.74 -149.503 838.213 79 81 87
9840.94 -1041.9 6307.17 107 94 89
9808.13 -1041.9 6358.07 138 125 119
9775.06 -1041.9 6408.81 141 127 119
9741.72 -1041.9 6459.37 170 158 146
2654.79 -284.918 1780.16 179 162 152
2645.53 -284.918 1793.89 170 150 141
2231.73 -241.203 1530.24 152 131 122
2223.77 -241.203 1541.78 173 153 141
1801.38 -196.096 1262.81 188 171 156
2207.67 -241.203 1564.75 185 170 153
2199.53 -241.203 1576.16 208 199 180
3556.07 -391.421 2576.23 204 198 183
3542.67 -391.421 2594.63 146 142 132
2568.92 -284.918 1901.98 87 86 85
2559.03 -284.918 1915.27 65 68 78
2549.07 -284.918 1928.5 73 81 93
2539.04 -284.918 1941.68 79 90 103
2140.93 -241.203 1654.89 76 86 100
929.423 -108.273 782.041 73 86 105
925.359 -108.273 786.846 71 85 106
8865.31 -1041.9 7617.8 77 91 110
8825.72 -1041.9 7663.63 87 100 119
8785.89 -1041.9 7709.26 94 106 124
908.853 -108.273 805.854 99 109 126
904.666 -108.273 810.553 104 113 129
900.454 -108.273 815.229 111 120 135
811.989 -98.0969 742.83 114 123 137
891.957 -108.273 824.517 110 120 132
953.504 -116.302 890.616 105 115 127
1067.47 -130.838 1007.47 100 111 124
1062.24 -130.838 1012.99 91 103 120
1056.97 -130.838 1018.48 80 93 112
1051.68 -130.838 1023.95 77 91 108
1046.36 -130.838 1029.38 78 96 114
1189.53 -149.503 1182.41 72 100 122
1183.38 -149.503 1188.56 64 91 112
1177.21 -149.503 1194.67 70 98 120
1171 -149.503 1200.76 80 108 127
1527.76 -196.096 1582.91 85 111 128
1519.54 -196.096 1590.8 81 106 121
1511.28 -196.096 1598.66 88 110 126
1502.97 -196.096 1606.47 105 123 137
1494.63 -196.096 1614.23 107 119 133
1828.12 -241.203 1995.05 94 104 121
1817.76 -241.203 2004.49 85 97 115
1807.35 -241.203 2013.88 86 98 116
2122.55 -284.918 2389.9 88 99 118
2110.14 -284.918 2400.87 83 94 114
2881.79 -391.421 3313.29 72 83 104
4578.6 -625.626 5319.59 65 77 101
4550.97 -625.626 5343.24 63 76 99
2059.93 -284.918 2444.08 61 76 99
2047.24 -284.918 2454.73 62 78 102
2034.5 -284.918 2465.3 67 84 109
2021.69 -284.918 2475.81 69 84 110
2008.84 -284.918 2486.25 66 81 107
2742.01 -391.421 3429.87 65 81 107
2724.2 -391.421 3444.03 66 83 108
7203.78 -1041.9 9204.89 74 89 110
4210.16 -625.626 5615.7 117 121 130
999.118 -149.503 1347.15 104 111 123
992.124 -149.503 1352.31 85 98 113
985.104 -149.503 1357.44 71 88 110
978.057 -149.503 1362.52 71 89 116
1072.97 -165.207 1511.22 69 88 114
1555.1 -241.203 2214.48 65 85 109
1543.6 -241.203 2222.51 60 79 106
1245.56 -196.096 1813.35 92 110 134
1236.14 -196.096 1819.78 174 185 201
1226.7 -196.096 1826.16 132 143 156
1025.48 -165.207 1543.84 65 83 99
805.801 -130.838 1226.86 58 76 96
710.617 -116.302 1094.25 58 78 96
704.937 -116.302 1097.92 56 77 90
699.239 -116.302 1101.56 55 78 86
645.641 -108.273 1028.87 53 77 81
640.301 -108.273 1032.2 53 78 80
634.944 -108.273 1035.5 52 76 80
6058.31 -1041.9 9996.07 52 75 81
670.469 -116.302 1119.3 49 73 84
447.833 -78.3617 756.49 48 68 88
443.907 -78.3617 758.801 43 63 91
439.969 -78.3617 761.091 38 62 87
436.02 -78.3617 763.36 34 59 87
1329.91 -241.203 2356.6 34 59 85
1317.68 -241.203 2363.46 35 59 86
1305.42 -241.203 2370.26 34 59 86
1293.12 -241.203 2376.99 36 61 88
1512.91 -284.918 2815.67 38 63 90
1498.3 -284.918 2823.47 42 67 93
1483.65 -284.918 2831.19 44 70 95
2018.06 -391.421 3900.01 47 74 98
647.406 -130.838 1317.33 62 89 124
415.044 -84.7738 855.7 62 91 125
379.548 -78.3617 792.954 61 90 124
375.434 -78.3617 794.91 60 89 124
371.31 -78.3617 796.844 63 89 126
397.221 -84.7738 864.117 64 90 127
501.603 -108.273 1106.26 62 90 127
495.865 -108.273 1108.84 66 90 130
490.112 -108.273 1111.4 66 88 128
585.293 -130.838 1346.08 65 85 125
660.811 -149.503 1541.55 63 83 124
856.264 -196.096 2026.44 62 82 121
845.753 -196.096 2030.85 60 80 115
835.219 -196.096 2035.21 54 74 110
824.662 -196.096 2039.51 50 70 107
814.083 -196.096 2043.75 45 68 105
803.483 -196.096 2047.94 41 67 104
529.009 -130.838 1369.18 36 62 100
521.907 -130.838 1371.9 34 62 101
514.792 -130.838 1374.59 42 75 113
935.888 -241.203 2538.97 47 83 119
909.527 -241.203 2548.53 47 82 118
613.907 -165.207 1748.76 46 78 114
604.837 -165.207 1751.92 47 77 113
595.752 -165.207 1755.03 53 83 120
586.65 -165.207 1758.09 60 90 127
577.533 -165.207 1761.11 61 93 129
514.372 -149.503 1596.4 62 95 130
442.909 -130.838 1399.4 66 96 131
435.653 -130.838 1401.68 67 96 129
428.384 -130.838 1403.92 66 95 130
421.104 -130.838 1406.12 66 95 125
472.846 -149.503 1609.19 67 93 125
513.292 -165.207 1780.89 67 94 124
504.057 -165.207 1783.53 66 92 123
554.301 -196.096 2128.95 37 60 89
543.263 -196.096 2131.79 43 64 93
315.647 -116.302 1265.99 48 68 95
309.083 -116.302 1267.61 49 69 96
302.511 -116.302 1269.19 50 71 98
295.931 -116.302 1270.74 50 71 98
289.342 -116.302 1272.26 51 71 97
282.746 -116.302 1273.74 52 72 99
276.143 -116.302 1275.19 54 74 101
250.923 -108.273 1188.47 54 74 101
244.762 -108.273 1189.75 51 72 99
256.288 -116.302 1279.33 51 72 99
249.656 -116.302 1280.64 49 70 97
243.017 -116.302 1281.92 52 73 100
236.372 -116.302 1283.16 54 75 102
229.72 -116.302 1284.37 55 77 104
223.062 -116.302 1285.54 55 79 105
216.398 -116.302 1286.68 65 85 113
209.729 -116.302 1287.78 63 82 111
189.034 -108.273 1199.87 64 84 112
196.372 -116.302 1289.89 65 88 114
189.686 -116.302 1290.89 64 87 117
182.995 -116.302 1291.85 68 91 122
176.299 -116.302 1292.78 73 97 128
169.598 -116.302 1293.68 79 106 137
162.893 -116.302 1294.54 85 114 146
156.183 -116.302 1295.37 90 119 151
149.469 -116.302 1296.16 95 124 156
142.751 -116.302 1296.92 101 129 161
457.814 -391.421 4367.27 101 129 161
412.533 -391.421 4371.78 106 130 164
283.793 -284.918 3183.76 107 133 164
267.293 -284.918 3185.19 107 134 164
250.785 -284.918 3186.53 109 136 166
234.271 -284.918 3187.79 110 135 167
68.5165 -89.6511 1003.42 110 136 168
63.3165 -89.6511 1003.76 102 128 158
58.1146 -89.6511 1004.08 90 115 146
52.9113 -89.6511 1004.37 100 126 155
45.1111 -84.7738 949.973 111 138 167
42.5005 -89.6511 1004.86 105 132 161
40.8066 -98.0969 1099.75 104 131 160
35.1078 -98.0969 1099.95 105 130 161
29.408 -98.0969 1100.12 106 131 161
23.7075 -98.0969 1100.25 106 131 162
18.0062 -98.0969 1100.36 107 132 163
12.3045 -98.0969 1100.44 109 134 165
6.03404 -89.6511 1005.74 110 136 166
0.822802 -89.6511 1005.76 106 134 163
-4.38846 -89.6511 1005.75 98 126 156
-9.59961 -89.6511 1005.71 93 118 149
-14.8105 -89.6511 1005.65 94 120 152
-20.021 -89.6511 1005.56 105 131 163
-23.8584 -84.7738 950.744 111 137 169
-28.7843 -84.7738 950.608 112 139 171
-33.7094 -84.7738 950.446 115 141 174
-474.82 -1041.9 11679 117 143 175
-535.327 -1041.9 11676.4 117 143 175
-61.9167 -108.273 1213.09 117 143 174
-68.2014 -108.273 1212.75 118 144 175
-74.4842 -108.273 1212.38 119 145 176
-63.2364 -84.7738 948.939 118 145 175
-68.1525 -84.7738 948.598 118 143 173
-77.2704 -89.6511 1002.79 118 143 173
-99.5941 -108.273 1210.58 117 142 172
-105.865 -108.273 1210.04 116 141 171
-112.134 -108.273 1209.48 113 138 168
-118.399 -108.273 1208.88 112 137 167
-112.945 -98.0969 1094.7 111 134 165
-118.616 -98.0969 1094.1 111 134 164
-107.404 -84.7738 944.959 114 138 166
-112.298 -84.7738 944.39 117 141 169
-117.19 -84.7738 943.796 117 141 169
-122.079 -84.7738 943.176 117 141 169
-126.964 -84.7738 942.531 120 141 170
-121.873 -78.3617 870.62 120 142 171
-126.383 -78.3617 869.977 120 144 172
-130.889 -78.3617 869.31 104 128 156
-135.391 -78.3617 868.62 88 112 140
-139.89 -78.3617 867.907 106 132 159
-144.385 -78.3617 867.171 114 140 167
-148.877 -78.3617 866.411 112 138 166
-153.364 -78.3617 865.628 111 137 166
-170.763 -84.7738 935.587 113 139 166
-185.712 -89.6511 988.466 109 135 162
-190.831 -89.6511 987.49 99 125 155
-195.945 -89.6511 986.488 119 149 177
-155.973 -69.5494 764.499 127 154 181
-159.933 -69.5494 763.681 113 139 166
-175.763 -74.5891 818.118 114 140 167
-179.999 -74.5891 817.196 119 144 172
-184.231 -74.5891 816.253 107 129 158
-188.458 -74.5891 815.287 95 116 145
-192.68 -74.5891 814.3 89 110 138
-206.855 -78.3617 854.426 90 111 138
-211.28 -78.3617 853.342 87 107 134
-215.698 -78.3617 852.236 76 96 121
-209.514 -74.5891 810.132 79 99 123
-213.709 -74.5891 809.035 86 104 128
-217.898 -74.5891 807.917 70 88 112
-233.314 -78.3617 847.583 63 81 103
-257.153 -84.7738 915.618 53 71 93
-261.894 -84.7738 914.273 47 64 84
-266.628 -84.7738 912.904 45 61 80
-238.754 -74.5891 802.002 42 57 76
-226.494 -69.5494 746.651 41 55 74
-206.915 -62.4711 669.598 40 53 71
-210.382 -62.4711 668.517 38 51 68
-255.323 -74.5891 796.881 36 49 66
-259.449 -74.5891 795.548 34 45 63
-263.567 -74.5891 794.193 30 43 60
-249.593 -69.5494 739.25 30 41 60
-253.42 -69.5494 737.946 26 41 57
-240.891 -65.1291 689.806 25 40 59
-244.462 -65.1291 688.548 28 43 63
-248.026 -65.1291 687.272 31 45 65
-251.584 -65.1291 685.978 29 44 65
-255.135 -65.1291 684.665 28 43 64
-276.236 -69.5494 729.713 27 42 64
-280.013 -69.5494 728.271 27 42 65
-283.783 -69.5494 726.811 28 44 66
-269.269 -65.1291 679.231 31 48 71
-272.785 -65.1291 677.826 35 52 76
-295.046 -69.5494 722.312 41 58 84
-421.424 -98.0969 1016.62 40 60 85
-426.686 -98.0969 1014.43 44 64 91
-431.937 -98.0969 1012.2 54 74 102
-332.411 -74.5891 767.927 62 81 110
-313.658 -69.5494 714.427 67 87 116
-317.355 -69.5494 712.792 70 90 119
-300.64 -65.1291 665.94 69 90 119
-304.086 -65.1291 664.373 68 88 117
-307.525 -65.1291 662.789 66 87 115
-325.254 -55.6117 532.395 36 53 74
-328.008 -55.6117 530.702 50 67 91
-330.754 -55.6117 528.995 62 83 109
-352.922 -58.8522 557.998 70 91 118
-355.809 -58.8522 556.162 75 96 123
-358.686 -58.8522 554.311 81 102 129
-341.646 -55.6117 522.027 82 103 130
-344.346 -55.6117 520.25 84 105 132
-347.037 -55.6117 518.459 89 109 136
-337.273 -53.6327 498.268 85 105 132
-339.851 -53.6327 496.513 79 99 125
-342.419 -53.6327 494.746 73 91 117
-344.977 -53.6327 492.965 69 86 112
-347.527 -53.6327 491.171 67 84 109
-332.233 -50.9003 464.433 66 82 106
-334.635 -50.9003 462.705 63 79 101
-337.028 -50.9003 460.965 59 74 92
-339.412 -50.9003 459.212 56 68 86
-341.787 -50.9003 457.448 52 63 81
-344.152 -50.9003 455.67 51 63 79
-346.509 -50.9003 453.881 49 58 73
-348.856 -50.9003 452.08 38 46 61
-370.046 -53.6327 474.436 32 41 54
-372.499 -53.6327 472.513 31 41 53
-388.778 -55.6117 487.941 33 43 54
-391.301 -55.6117 485.92 34 44 54
-393.813 -55.6117 483.886 33 43 53
-419.408 -58.8522 509.915 32 42 51
-422.044 -58.8522 507.735 32 41 50
-424.67 -58.8522 505.541 34 43 52
-427.283 -58.8522 503.334 38 47 56
-406.216 -55.6117 473.522 35 44 53
-305.243 -41.538 352.11 32 41 50
-307.063 -41.538 350.524 35 44 53
-308.875 -41.538 348.928 36 45 55
-310.679 -41.538 347.323 38 46 57
-312.475 -41.538 345.709 37 45 56
-1824.86 -241.203 1998.04 35 43 54
-1835.18 -241.203 1988.55 35 43 53
-1845.46 -241.203 1979.02 34 43 53
-1508.66 -196.096 1601.13 34 42 53
-1516.94 -196.096 1593.29 33 41 52
-1525.17 -196.096 1585.41 33 42 51
-1533.37 -196.096 1577.48 31 41 51
-1541.52 -196.096 1569.52 30 40 50
-1549.63 -196.096 1561.51 31 41 50
-1312.33 -165.207 1308.75 32 42 51
-1319.09 -165.207 1301.94 31 41 51
-1325.82 -165.207 1295.08 27 37 47
-540.176 -62.4711 446.525 24 33 40
-542.483 -62.4711 443.72 25 34 41
-544.774 -62.4711 440.904 27 36 43
-547.052 -62.4711 438.075 27 36 43
-549.314 -62.4711 435.235 26 35 42
-551.562 -62.4711 432.383 23 32 39
-553.795 -62.4711 429.519 21 30 37
-556.013 -62.4711 426.644 25 34 41
-558.216 -62.4711 423.757 27 36 43
-560.404 -62.4711 420.859 26 35 42
-562.577 -62.4711 417.95 27 36 43
-564.735 -62.4711 415.029 28 37 44
-566.878 -62.4711 412.097 27 36 42
-569.006 -62.4711 409.155 27 36 41
-571.118 -62.4711 406.201 28 37 42
-573.215 -62.4711 403.236 26 35 40
-9594.85 -1041.9 6675.58 23 32 37
-9629.31 -1041.9 6625.78 23 32 37
-9663.51 -1041.9 6575.8 27 35 40
-92.31 -9.91782 62.1175 28 36 40
-92.6306 -9.91782 61.6383 28 36 39
-90.9572 -9.70532 59.8472 29 36 40
-88.3079 -9.39075 57.4506 28 35 40
-88.6044 -9.39075 56.9923 37 44 49
-85.9657 -9.08094 54.6673 64 71 77
-86.2478 -9.08094 54.2212 84 87 96
-86.5276 -9.08094 53.7736 82 85 94
-86.805 -9.08094 53.3245 85 84 93
-85.1238 -8.87693 51.6862 80 80 88
-85.3905 -8.87693 51.2444 63 61 68
-82.7368 -8.57452 49.0706 62 60 66
-82.99 -8.57452 48.6413 68 66 72
-83.2409 -8.57452 48.2106 72 70 75
-108.696 -11.1304 61.4581 72 69 76
-109.013 -11.1304 60.894 74 71 78
-109.327 -11.1304 60.3284 75 72 79
-106.304 -10.7919 57.9436 76 73 82
-106.602 -10.7919 57.392 75 72 79
-106.898 -10.7919 56.8389 74 71 80
-107.191 -10.7919 56.2842 73 70 81
-104.17 -10.4594 54.0112 72 68 79
-104.449 -10.4594 53.4707 71 66 78
-89.6673 -8.07953 13.2509 97 89 93
-89.7348 -8.07953 12.7861 94 86 91
-89.9805 -8.07953 10.9237 58 57 62
-90.0359 -8.07953 10.4573 74 73 78
-11617.4 -1041.9 1288.35 83 81 85
-11624 -1041.9 1228.14 87 85 88
-124.243 -11.1304 12.4764 88 86 89
-124.306 -11.1304 11.8324 90 88 91
-126.926 -11.3596 11.4186 89 87 90
-836.422 -74.5891 -24.6418 31 28 35
-779.78 -69.5494 -27.0177 39 39 45
-730.078 -65.1291 -29.0836 55 56 61
-729.918 -65.1291 -32.8662 71 72 76
-67.262 -6.01297 -5.12755 89 88 96
-67.2345 -6.01297 -5.476 89 88 96
-67.2052 -6.01297 -5.82429 88 88 96
-67.1741 -6.01297 -6.17244 88 88 96
-67.1412 -6.01297 -6.52042 88 88 96
-67.1066 -6.01297 -6.86821 87 89 98
-67.0701 -6.01297 -7.21583 87 90 99
-67.0318 -6.01297 -7.56325 87 90 99
-66.9917 -6.01297 -7.91047 85 88 97
-66.9498 -6.01297 -8.25747 97 100 109
11698.2 -981.681 0 49 55 68
292.251 -24.5253 1.5143 49 55 69
11697.6 -981.681 121.225 52 59 71
292.22 -24.5253 4.54273 60 70 80
292.192 -24.5253 6.05678 67 80 89
292.157 -24.5253 7.57067 69 85 92
292.114 -24.5253 9.08436 69 88 92
292.063 -24.5253 10.5978 69 87 87
292.004 -24.5253 12.111 59 75 75
4387.05 -368.749 250.315 35 38 48
4385.7 -368.749 273.043 33 35 46
4384.22 -368.749 295.764 31 34 43
4382.63 -368.749 318.476 29 32 42
4380.92 -368.749 341.18 36 38 50
4379.1 -368.749 363.875 52 54 66
6996.77 -589.436 617.907 68 71 82
6993.48 -589.436 654.152 71 75 84
4372.91 -368.749 431.898 71 75 84
4370.62 -368.749 454.551 71 75 84
3179.39 -268.393 347.322 70 74 84
3177.55 -268.393 363.792 70 74 85
2688.24 -227.202 321.892 70 74 85
2686.54 -227.202 335.816 70 74 85
2182.51 -184.698 284.306 70 74 85
2181.01 -184.698 295.61 71 75 87
2179.45 -184.698 306.907 70 75 88
2177.83 -184.698 318.196 68 74 89
2176.15 -184.698 329.476 68 74 91
2174.41 -184.698 340.747 70 77 95
1656.18 -140.795 268.335 72 77 97
1448.06 -123.207 242.321 71 76 96
1446.78 -123.207 249.821 71 76 96
1445.47 -123.207 257.314 83 88 114
1444.11 -123.207 264.8 100 110 139
1442.72 -123.207 272.279 110 128 151
1808.27 -155.591 409.689 105 123 145
1806.12 -155.591 419.053 103 122 144
1632.37 -140.795 387.664 100 121 142
1630.34 -140.795 396.116 102 123 144
1628.27 -140.795 404.559 103 124 145
1626.15 -140.795 412.99 106 127 147
1623.99 -140.795 421.41 112 133 151
1621.78 -140.795 429.819 112 134 149
1619.54 -140.795 438.216 109 131 145
1415.22 -123.207 390.813 108 130 144
1413.18 -123.207 398.141 107 129 143
1776.6 -155.591 530.471 69 86 104
1404.62 -123.207 427.343 84 101 124
1402.39 -123.207 434.615 89 108 133
1400.12 -123.207 441.875 96 117 140
1397.81 -123.207 449.124 107 128 149
1395.46 -123.207 456.361 109 130 151
1393.08 -123.207 463.585 105 126 146
1589.18 -140.795 538.003 104 125 145
2559.94 -227.202 881.457 106 126 144
2555.34 -227.202 894.71 104 125 142
2550.67 -227.202 907.938 106 125 142
2069.65 -184.698 748.819 107 125 144
2065.74 -184.698 759.533 106 124 144
2061.78 -184.698 770.226 103 121 139
1733.48 -155.591 657.837 99 120 135
1730.05 -155.591 666.81 98 120 134
1726.57 -155.591 675.765 99 121 135
1723.04 -155.591 684.702 98 119 130
1555.95 -140.795 627.657 89 107 113
1715.85 -155.591 702.521 64 77 83
1712.19 -155.591 711.402 36 43 57
2028.09 -184.698 855.004 38 42 61
2489.32 -227.202 1064.68 34 39 58
2483.77 -227.202 1077.56 39 45 65
2478.15 -227.202 1090.41 65 70 92
1525 -140.795 699.507 74 75 114
1521.35 -140.795 707.399 79 77 122
1517.67 -140.795 715.273 93 92 134
1513.94 -140.795 723.127 126 128 153
791.147 -73.7591 382.934 164 167 176
789.152 -73.7591 387.029 184 186 191
787.136 -73.7591 391.112 166 168 171
785.099 -73.7591 395.186 121 125 127
783.041 -73.7591 399.248 135 139 140
780.961 -73.7591 403.3 130 134 133
778.861 -73.7591 407.341 111 113 114
10337.9 -981.681 5475.06 196 196 194
10309.4 -981.681 5528.55 238 242 235
10280.6 -981.681 5581.89 146 156 137
10251.5 -981.681 5635.09 111 123 102
1466.08 -140.795 815.802 87 97 86
1461.84 -140.795 823.387 83 91 83
1610.73 -155.591 918.279 78 84 83
1605.95 -155.591 926.613 76 78 84
706.672 -70.2043 447.765 176 158 152
740.008 -73.7591 474.279 96 84 80
9816.14 -981.681 6363.26 133 119 114
9783.03 -981.681 6414.04 136 119 112
2665.58 -268.393 1767.44 176 161 149
2656.38 -268.393 1781.23 173 156 145
2647.12 -268.393 1794.97 172 151 142
2232.95 -227.202 1531.08 177 155 145
1808.74 -184.698 1254.04 177 157 144
1802.22 -184.698 1263.4 176 158 143
1795.65 -184.698 1272.72 183 168 150
3571.8 -368.749 2559.52 206 196 177
3558.49 -368.749 2577.99 185 178 163
3545.09 -368.749 2596.39 117 115 107
2570.46 -268.393 1903.13 70 71 73
2560.56 -268.393 1916.42 67 70 81
2550.6 -268.393 1929.66 75 83 96
2540.57 -268.393 1942.85 78 89 102
2142.1 -227.202 1655.79 74 84 98
769.539 -84.3969 647.51 70 82 104
724.453 -79.8011 616.013 69 84 105
762.788 -84.3969 655.45 75 88 109
8832.92 -981.681 7669.89 88 100 120
913.123 -101.944 801.228 100 112 130
908.959 -101.944 805.949 107 117 134
904.771 -101.944 810.647 108 117 133
900.559 -101.944 815.325 107 116 131
812.018 -92.3552 742.856 108 117 131
808.158 -92.3552 747.054 109 118 131
804.276 -92.3552 751.231 104 113 126
800.373 -92.3552 755.388 99 110 123
796.448 -92.3552 759.525 91 103 120
792.502 -92.3552 763.642 81 94 113
1051.95 -123.207 1024.2 82 96 113
1046.63 -123.207 1029.64 92 110 128
1189.92 -140.795 1182.8 86 116 139
1183.78 -140.795 1188.95 68 103 125
1030.5 -123.207 1045.78 74 108 132
1025.06 -123.207 1051.11 74 108 129
1528.48 -184.698 1583.65 76 107 127
1520.25 -184.698 1591.55 78 105 123
1511.98 -184.698 1599.4 81 104 121
1503.68 -184.698 1607.21 93 112 125
1495.33 -184.698 1614.98 98 110 124
1829.12 -227.202 1996.14 90 100 117
1818.76 -227.202 2005.59 83 95 112
1808.34 -227.202 2014.98 79 91 108
2123.83 -268.393 2391.34 75 84 103
2111.41 -268.393 2402.31 70 81 101
4609.61 -589.436 5299.83 68 79 100
7631.27 -981.681 8866.3 67 78 101
7585.23 -981.681 8905.72 65 77 102
1744.83 -227.202 2070.22 61 76 99
1734.08 -227.202 2079.23 60 76 99
2035.72 -268.393 2466.78 65 81 106
2022.91 -268.393 2477.3 70 84 110
2010.05 -268.393 2487.74 68 84 109
1997.13 -268.393 2498.13 67 83 109
1984.16 -268.393 2508.44 69 85 110
2708.17 -368.749 3460.45 75 91 111
4213.37 -589.436 5619.98 113 116 125
999.45 -140.795 1347.6 97 104 116
992.454 -140.795 1352.76 79 93 107
985.431 -140.795 1357.89 62 79 100
