ply
format ascii 1.0
element vertex 1309
property float x
property float y
property float z
property uchar red
property uchar green
property uchar blue
end_header
-583.373 -776.349 1191.96 255 255 255
-589.542 -776.349 1188.93 255 255 255
-595.694 -776.349 1185.86 255 255 255
-601.83 -776.349 1182.75 255 255 255
-668.556 -853.742 1297.21 255 255 255
-675.268 -853.742 1293.73 255 255 255
-620.142 -776.349 1173.26 255 255 255
-552.012 -684.359 1031.39 255 255 255
-557.349 -684.359 1028.51 255 255 255
-562.671 -684.359 1025.61 255 255 255
-508.52 -612.719 915.627 255 255 255
-513.258 -612.719 912.98 255 255 255
-517.981 -612.719 910.308 255 255 255
-488.932 -573.145 848.992 255 255 255
-493.324 -573.145 846.448 255 255 255
-497.704 -573.145 843.88 255 255 255
-502.069 -573.145 841.29 255 255 255
-506.422 -573.145 838.677 255 255 255
-466.069 -522.995 762.888 255 254 255
-470.016 -522.995 760.463 255 255 255
-473.95 -522.995 758.018 255 255 255
-477.871 -522.995 755.552 255 254 255
-443.435 -481.37 693.129 255 255 254
-447.02 -481.37 690.823 255 255 254
-428.093 -457.332 654.117 255 255 255
-431.476 -457.332 651.89 255 255 255
-457.704 -481.37 683.791 255 255 255
-461.241 -481.37 681.41 254 255 255
-464.765 -481.37 679.011 254 255 255
-468.277 -481.37 676.594 254 255 255
-471.777 -481.37 674.158 254 255 255
-475.264 -481.37 671.705 254 255 255
-520.135 -522.995 727.103 254 255 255
-523.895 -522.995 724.398 254 255 255
-618.163 -612.719 845.483 254 255 255
-622.535 -612.719 842.268 254 255 255
-626.891 -612.719 839.031 254 255 255
-538.795 -522.995 713.385 252 255 255
-542.485 -522.995 710.584 252 255 255
-546.159 -522.995 707.763 252 255 255
-506.059 -481.37 648.82 252 255 255
-509.414 -481.37 646.189 252 255 255
-512.756 -481.37 643.541 252 255 255
-516.083 -481.37 640.875 253 255 255
-519.397 -481.37 638.193 253 255 255
-567.895 -522.995 690.445 252 255 255
-1577.54 -1443.74 1897.84 252 255 255
-1587.35 -1443.74 1889.64 252 255 255
-1358.78 -1228.29 1600.63 251 255 255
-1367.06 -1228.29 1593.57 251 255 255
-1375.3 -1228.29 1586.46 250 255 255
-1133.1 -1005.98 1293.47 250 255 255
-1139.78 -1005.98 1287.58 250 255 255
-1146.44 -1005.98 1281.66 250 255 255
-1153.07 -1005.98 1275.7 249 254 255
-1159.66 -1005.98 1269.71 249 254 255
-1166.22 -1005.98 1263.69 249 254 255
-1172.76 -1005.98 1257.63 249 254 255
-1439.86 -1228.29 1528.11 249 254 255
-1447.76 -1228.29 1520.63 249 254 255
-1710.94 -1443.74 1778.51 248 254 255
-2455.45 -1968.63 2301.03 245 253 255
-2467.34 -1968.63 2288.28 245 253 255
-2479.16 -1968.63 2275.47 244 252 254
-2490.92 -1968.63 2262.59 244 252 254
-3969.97 -3122.9 3568.7 244 252 254
-3988.4 -3122.9 3548.08 244 252 254
-4006.73 -3122.9 3527.37 244 252 254
-2537.27 -1968.63 2210.48 245 253 253
-2548.69 -1968.63 2197.3 244 252 253
-545.481 -407.138 432.197 244 249 252
-547.713 -407.138 429.365 245 249 250
-212.511 -152.001 149.494 249 250 252
-213.283 -152.001 148.391 249 251 251
-209.352 -148.665 144.052 250 251 251
-210.095 -148.665 142.965 252 252 252
-210.833 -148.665 141.874 254 253 253
-211.565 -148.665 140.78 254 254 254
-201.878 -141.373 132.83 254 254 254
-202.564 -141.373 131.782 254 254 254
-203.244 -141.373 130.731 254 254 254
-199.685 -138.438 126.984 255 255 255
-200.34 -138.438 125.947 255 255 255
-196.878 -135.605 122.352 255 255 255
-255.099 -165.515 122.36 83 91 117
-249.697 -161.611 118.181 80 89 113
-250.306 -161.611 116.886 72 79 103
-256.97 -165.515 118.38 73 79 101
-261.79 -168.221 118.96 78 84 104
-262.403 -168.221 117.602 76 82 101
-269.61 -172.443 119.158 71 79 99
-270.224 -172.443 117.76 66 77 98
-270.83 -172.443 116.358 80 92 113
-271.43 -172.443 114.953 102 115 136
-279.017 -176.877 116.465 116 127 146
-279.617 -176.877 115.018 128 137 153
-280.209 -176.877 113.568 128 139 154
-285.689 -179.961 114.069 139 148 159
-286.276 -179.961 112.587 162 168 175
-286.856 -179.961 111.102 188 192 198
-221.108 -138.438 84.3222 223 225 229
-221.541 -138.438 83.1755 245 246 249
-221.969 -138.438 82.0264 253 254 255
-222.392 -138.438 80.8752 252 245 254
-222.808 -138.438 79.7218 193 179 197
-223.218 -138.438 78.5663 105 85 112
-223.622 -138.438 77.4086 84 63 95
-224.02 -138.438 76.2489 69 53 77
-224.412 -138.438 75.0872 74 66 77
-224.798 -138.438 73.9234 140 139 141
-225.178 -138.438 72.7576 201 200 204
-225.552 -138.438 71.5899 222 218 224
-225.92 -138.438 70.4203 152 141 152
-226.282 -138.438 69.2487 127 113 126
-226.637 -138.438 68.0754 122 108 121
-231.8 -141.373 68.3186 124 110 123
-232.151 -141.373 67.1166 123 109 123
-232.496 -141.373 65.9129 122 108 123
-232.834 -141.373 64.7073 119 106 121
-233.166 -141.373 63.5001 117 104 119
-236.825 -143.391 63.1801 115 101 116
-237.149 -143.391 61.9522 110 97 113
-242.64 -146.514 62.0455 106 92 109
-246.525 -148.665 61.6798 101 87 104
-8591.61 -5174.48 2102.35 94 81 99
-8602.38 -5174.48 2057.81 84 72 92
-269.001 -161.611 62.877 74 64 84
-269.323 -161.611 61.4823 65 56 75
-280.667 -168.221 62.5436 54 46 65
-300.598 -179.961 65.352 48 40 61
-300.932 -179.961 63.7936 47 41 63
-309.347 -184.792 63.9043 47 42 64
-309.674 -184.792 62.3005 48 43 66
-309.992 -184.792 60.6952 49 45 67
-310.303 -184.792 59.0881 51 48 70
-310.605 -184.792 57.4796 53 51 75
-310.898 -184.792 55.8694 57 54 81
785.524 -454.094 0 78 77 80
826.85 -477.99 4.28432 66 60 65
898.395 -519.37 9.31031 51 41 49
898.335 -519.37 13.9651 38 25 35
898.251 -519.37 18.6196 28 15 26
8894.62 -5143.5 230.486 29 16 28
8893.3 -5143.5 276.57 35 21 35
1052.05 -608.566 38.1747 43 31 45
1051.84 -608.566 43.6253 44 30 47
1051.6 -608.566 49.0747 43 28 47
1051.33 -608.566 54.5228 43 30 47
1051.03 -608.566 59.9695 55 46 62
1173.67 -679.786 73.0698 74 67 82
1173.27 -679.786 79.1501 83 80 93
1330.63 -771.235 96.6938 85 84 96
1462.8 -848.172 113.921 83 83 93
1462.19 -848.172 121.499 81 81 92
1461.54 -848.172 129.073 79 79 91
1460.85 -848.172 136.644 78 78 90
1716.77 -999.515 205.567 81 81 93
1715.68 -999.515 214.46 81 80 93
1714.55 -999.515 223.346 82 81 95
968.539 -569.226 177.596 59 62 81
967.606 -569.226 182.612 60 65 84
966.647 -569.226 187.624 57 62 82
965.662 -569.226 192.63 55 61 81
810.037 -477.99 165.954 62 68 90
809.166 -477.99 170.149 56 62 84
962.551 -569.226 207.616 51 57 79
1027.91 -608.566 227.294 51 57 79
1026.72 -608.566 232.617 58 64 88
1025.5 -608.566 237.934 61 67 91
1024.25 -608.566 243.245 59 65 89
956.85 -569.226 232.481 57 63 87
955.632 -569.226 237.436 60 67 91
954.389 -569.226 242.384 60 68 92
953.121 -569.226 247.326 57 64 90
951.826 -569.226 252.261 62 69 95
950.506 -569.226 257.189 66 73 99
757.183 -454.094 209.096 66 73 99
756.09 -454.094 213.017 61 68 94
754.976 -454.094 216.932 62 69 95
516.649 -311.215 151.354 67 73 99
515.858 -311.215 154.029 71 77 103
515.053 -311.215 156.7 66 72 98
514.234 -311.215 159.366 61 68 92
539.592 -327.092 170.295 59 65 89
538.703 -327.092 173.088 61 67 93
537.799 -327.092 175.877 69 75 101
565.983 -344.823 188.346 71 77 104
692.567 -422.678 234.463 73 78 107
691.343 -422.678 238.048 74 79 108
659.922 -404.194 231.061 68 73 102
658.716 -404.194 234.477 64 69 98
657.492 -404.194 237.887 61 66 95
656.251 -404.194 241.291 60 65 95
684.945 -422.678 255.877 64 69 98
8285.58 -5143.5 3242.91 63 66 97
8268.67 -5143.5 3285.8 69 72 103
8251.53 -5143.5 3328.6 75 76 107
8234.17 -5143.5 3371.31 70 71 102
8216.59 -5143.5 3413.93 59 60 91
3083.58 -1956.51 1395.13 93 92 160
747.955 -477.99 352.509 96 111 182
746.119 -477.99 356.38 150 176 227
832.919 -608.566 643.826 226 248 252
829.572 -608.566 648.133 227 248 252
826.203 -608.566 652.422 227 247 251
822.811 -608.566 656.694 228 248 251
819.397 -608.566 660.949 229 248 252
4126.42 -3103.99 3435.72 230 248 252
4108.57 -3103.99 3457.06 231 249 251
4090.6 -3103.99 3478.3 232 249 251
4072.52 -3103.99 3499.45 233 248 251
4054.34 -3103.99 3520.5 233 248 251
4036.04 -3103.99 3541.46 234 249 252
6657.48 -5143.5 5903 234 249 252
6626.8 -5143.5 5937.41 234 249 252
6595.95 -5143.5 5971.67 234 249 252
6564.92 -5143.5 6005.76 234 249 252
6533.71 -5143.5 6039.7 235 250 252
6502.33 -5143.5 6073.47 236 250 252
6470.77 -5143.5 6107.08 236 250 252
6439.04 -5143.5 6140.53 236 250 251
6407.14 -5143.5 6173.81 237 249 251
6375.06 -5143.5 6206.92 238 249 252
3827.75 -3103.99 3765.62 238 249 253
3808.18 -3103.99 3785.41 238 249 252
3788.52 -3103.99 3805.09 238 249 251
3768.75 -3103.99 3824.66 238 249 251
3748.88 -3103.99 3844.14 238 249 251
2350.41 -1956.51 2435.25 239 250 252
2337.76 -1956.51 2447.39 240 250 252
2325.05 -1956.51 2459.47 240 250 252
2312.27 -1956.51 2471.49 241 251 253
2299.44 -1956.51 2483.44 241 251 253
2286.54 -1956.51 2495.32 241 251 253
2273.58 -1956.51 2507.13 241 251 253
3586.36 -3103.99 3996.19 241 251 253
3565.61 -3103.99 4014.72 242 251 253
3544.76 -3103.99 4033.14 244 252 254
3523.82 -3103.99 4051.45 244 252 254
3502.78 -3103.99 4069.66 244 252 254
3481.64 -3103.99 4087.75 244 252 254
3460.42 -3103.99 4105.74 245 251 254
3439.1 -3103.99 4123.61 246 251 254
3417.68 -3103.99 4141.38 246 251 254
3396.18 -3103.99 4159.03 247 252 255
3374.58 -3103.99 4176.57 247 252 255
3352.9 -3103.99 4194 247 252 255
3331.12 -3103.99 4211.32 248 253 255
3309.26 -3103.99 4228.52 248 253 255
3287.3 -3103.99 4245.61 248 253 255
3265.26 -3103.99 4262.59 248 253 255
3243.13 -3103.99 4279.45 248 253 255
5337.25 -5143.5 7119.06 249 254 255
5300.3 -5143.5 7146.62 250 254 255
5263.19 -5143.5 7173.99 250 254 255
5225.95 -5143.5 7201.16 250 254 255
5188.57 -5143.5 7228.14 250 254 255
5151.05 -5143.5 7254.93 250 254 255
5113.39 -5143.5 7281.52 250 254 255
5075.59 -5143.5 7307.92 251 255 255
5037.66 -5143.5 7334.12 251 255 255
4999.59 -5143.5 7360.13 251 255 255
4961.39 -5143.5 7385.93 252 255 255
4923.05 -5143.5 7411.54 251 255 255
4884.58 -5143.5 7436.95 252 255 255
4845.98 -5143.5 7462.16 253 255 255
2877.62 -3103.99 4533.31 254 255 255
2854.09 -3103.99 4548.16 254 255 255
2830.49 -3103.99 4562.88 254 255 255
2806.81 -3103.99 4577.49 254 255 255
2783.05 -3103.99 4591.97 254 255 255
2759.22 -3103.99 4606.33 254 255 255
2735.32 -3103.99 4620.56 254 255 255
2711.34 -3103.99 4634.67 255 255 255
2687.29 -3103.99 4648.66 255 255 255
2663.16 -3103.99 4662.52 254 255 255
2638.97 -3103.99 4676.26 255 255 255
2614.7 -3103.99 4689.87 255 255 255
2590.37 -3103.99 4703.35 255 255 255
1617.38 -1956.51 2973.04 255 255 255
1601.95 -1956.51 2981.38 255 255 255
1586.48 -1956.51 2989.64 255 255 255
4048.07 -5143.5 7923.41 255 255 255
4006.96 -5143.5 7944.28 255 255 255
3965.75 -5143.5 7964.93 255 255 255
2368.3 -3103.99 4818.99 255 255 255
1477.03 -1956.51 3045.2 255 255 255
1071.51 -1434.7 2238.61 255 255 255
901.672 -1220.52 1909.12 255 255 255
891.768 -1220.52 1913.76 255 255 255
1413.6 -1956.51 3075.16 255 255 255
3674.31 -5143.5 8103.5 255 255 255
3632.28 -5143.5 8122.43 255 255 255
3590.14 -5143.5 8141.14 255 255 255
2141.08 -3103.99 4924.16 255 255 254
2089.94 -3103.99 4946.08 255 255 254
3420.65 -5143.5 8213.8 255 255 255
656.441 -999.515 1599.57 255 255 255
550.005 -848.172 1360.24 255 255 255
639.83 -999.515 1606.29 255 255 255
906.449 -1434.7 2310.39 255 255 255
1219.79 -1956.51 3157.05 255 255 255
1203.41 -1956.51 3163.33 255 255 255
1883.18 -3103.99 5028.44 255 255 255
1857.1 -3103.99 5038.13 255 255 255
1104.5 -1956.51 3199.21 255 255 255
1087.91 -1956.51 3204.89 255 255 255
1071.29 -1956.51 3210.48 255 255 255
1673.19 -3103.99 5102.16 255 255 255
1646.73 -3103.99 5110.76 255 255 255
2684.82 -5143.5 8482.87 255 255 255
2640.83 -5143.5 8496.67 255 254 255
2596.77 -5143.5 8510.24 255 254 255
2552.64 -5143.5 8523.58 255 255 255
2508.44 -5143.5 8536.69 255 255 255
2464.17 -5143.5 8549.57 255 254 255
2375.44 -5143.5 8574.65 255 255 255
2286.46 -5143.5 8598.8 255 255 255
2241.87 -5143.5 8610.54 255 255 254
2197.23 -5143.5 8622.04 255 255 255
2152.52 -5143.5 8633.31 255 255 255
28.284 -83.2387 141.187 255 255 255
27.2213 -82.2392 139.635 255 255 255
26.02 -80.7575 137.256 255 255 255
25.3085 -80.7575 137.389 255 254 255
24.5963 -80.7575 137.518 255 255 255
23.8834 -80.7575 137.643 255 255 255
22.7506 -79.296 135.272 255 255 255
21.7814 -78.3324 133.743 255 255 255
21.0881 -78.3324 133.854 255 255 255
20.6452 -79.296 135.609 255 255 255
127.995 -569.226 976.333 255 255 255
81.8966 -454.094 781.243 255 255 255
77.8475 -454.094 781.657 255 255 255
72.1703 -569.226 982.039 255 255 255
67.081 -569.226 982.4 255 255 255
61.9899 -569.226 982.734 255 255 255
56.897 -569.226 983.042 255 255 255
-1142.12 -5143.5 8824 255 255 255
-716.827 -3103.99 5321.44 255 255 255
-744.39 -3103.99 5317.65 255 255 255
-486.564 -1956.51 3349.34 255 255 255
-369.517 -1434.7 2454.18 255 255 255
-382.228 -1434.7 2452.23 255 255 255
-335.972 -1220.52 2084.43 255 255 255
-407.619 -1434.7 2448.14 255 255 255
-420.299 -1434.7 2445.99 255 255 255
-432.967 -1434.7 2443.78 255 255 255
-607.699 -1956.51 3329.5 255 255 255
-624.942 -1956.51 3326.3 255 255 255
-470.9 -1434.7 2436.76 255 255 255
-483.52 -1434.7 2434.29 255 255 255
-496.126 -1434.7 2431.75 255 255 255
-508.719 -1434.7 2429.14 255 255 255
-521.299 -1434.7 2426.48 255 255 255
-533.865 -1434.7 2423.74 255 255 255
-464.843 -1220.52 2059.53 255 255 255
-558.952 -1434.7 2418.08 255 255 255
-779.322 -1956.51 3293.56 255 255 255
-796.377 -1956.51 3289.47 255 255 255
-813.411 -1956.51 3285.3 255 255 255
-830.423 -1956.51 3281.04 255 255 255
-847.412 -1956.51 3276.7 255 255 255
-864.378 -1956.51 3272.26 255 255 255
-881.322 -1956.51 3267.74 255 255 255
-898.241 -1956.51 3263.13 255 255 255
-671.066 -1434.7 2389.4 255 255 255
-683.438 -1434.7 2385.89 255 255 255
-484.739 -999.515 1659.69 255 255 255
-493.332 -999.515 1657.16 255 255 255
-501.911 -999.515 1654.58 255 255 255
-510.478 -999.515 1651.96 255 255 255
-519.03 -999.515 1649.29 255 255 255
-527.569 -999.515 1646.58 255 255 255
-536.094 -999.515 1643.82 255 255 255
-544.604 -999.515 1641.02 255 255 255
-553.099 -999.515 1638.18 255 255 255
-476.548 -848.172 1387.68 255 255 255
-483.732 -848.172 1385.2 255 255 255
-446.373 -771.235 1257.25 255 255 255
-452.881 -771.235 1254.92 255 255 255
-459.377 -771.235 1252.56 255 255 255
-410.622 -679.786 1101.92 255 255 255
-372.708 -608.566 984.558 255 255 255
-377.805 -608.566 982.613 255 255 255
-382.891 -608.566 980.642 255 255 255
-433.37 -679.786 1093.17 255 255 255
-498.09 -771.235 1237.67 255 255 255
-504.496 -771.235 1235.07 255 255 255
-510.888 -771.235 1232.44 255 255 255
-517.267 -771.235 1229.78 255 255 255
-575.869 -848.172 1349.49 255 255 255
-582.854 -848.172 1346.49 255 255 255
-589.823 -848.172 1343.45 255 255 255
-596.776 -848.172 1340.38 255 255 255
-548.95 -771.235 1215.97 255 255 255
-555.244 -771.235 1213.11 255 255 255
-617.538 -848.172 1330.94 255 255 255
-624.426 -848.172 1327.72 255 255 255
-631.297 -848.172 1324.47 255 255 255
-638.152 -848.172 1321.18 255 255 255
-586.482 -771.235 1198.32 255 255 255
-522.405 -679.786 1053.53 255 255 255
-598.868 -771.235 1192.17 255 255 255
-605.037 -771.235 1189.06 255 255 255
-611.19 -771.235 1185.9 255 255 255
-617.327 -771.235 1182.72 255 255 255
-623.447 -771.235 1179.51 255 255 255
-629.55 -771.235 1176.26 255 255 255
-635.636 -771.235 1172.98 255 255 255
-641.705 -771.235 1169.67 255 255 255
-647.757 -771.235 1166.33 255 255 255
-515.894 -608.566 917.67 255 255 255
-520.642 -608.566 914.985 255 255 255
-491.413 -569.226 853.301 255 255 255
-495.828 -569.226 850.743 255 255 255
-500.229 -569.226 848.162 255 255 255
-504.617 -569.226 845.559 255 255 255
-464.412 -519.37 769.105 255 255 255
-468.39 -519.37 766.688 255 255 255
-472.357 -519.37 764.251 255 255 255
-438.361 -477.99 701.099 255 255 255
-441.988 -477.99 698.818 255 255 255
-445.603 -477.99 696.519 255 255 255
-426.749 -454.094 659.495 255 255 255
-430.16 -454.094 657.275 255 255 255
-433.56 -454.094 655.037 255 255 255
-436.948 -454.094 652.782 255 255 255
-463.496 -477.99 684.742 254 255 255
-467.038 -477.99 682.331 254 255 255
-470.567 -477.99 679.902 254 255 255
-621.338 -608.566 849.826 254 255 255
-545.187 -519.37 714.123 252 255 255
-505.148 -477.99 654.618 252 255 255
-508.534 -477.99 651.992 252 255 255
-511.905 -477.99 649.348 252 255 255
-515.263 -477.99 646.687 252 255 255
-458.594 -422.678 569.485 253 255 255
-461.539 -422.678 567.101 252 255 255
-464.471 -422.678 564.702 252 255 255
-502.13 -454.094 604.081 252 255 255
-1358.02 -1220.52 1616.64 252 255 255
-1366.38 -1220.52 1609.58 252 255 255
-1125.78 -999.515 1312.31 251 255 255
-1132.57 -999.515 1306.46 250 255 255
-1139.32 -999.515 1300.58 250 255 255
-1146.04 -999.515 1294.66 251 255 255
-1152.74 -999.515 1288.7 250 255 255
-1159.4 -999.515 1282.71 250 255 255
-1166.03 -999.515 1276.69 250 254 255
-1172.63 -999.515 1270.63 249 254 255
-1179.2 -999.515 1264.53 249 254 255
-1185.73 -999.515 1258.41 249 254 255
-1455.85 -1220.52 1529.13 249 254 255
-1463.76 -1220.52 1521.57 247 255 255
-1729.87 -1434.7 1779.64 246 255 254
-2469.6 -1956.51 2314.29 245 253 255
-2481.55 -1956.51 2301.47 245 253 255
-2493.45 -1956.51 2288.58 245 253 255
-2505.27 -1956.51 2275.63 245 253 255
-2517.03 -1956.51 2262.62 244 252 254
-2528.72 -1956.51 2249.54 244 252 254
-2540.34 -1956.51 2236.41 244 253 253
-2551.89 -1956.51 2223.22 244 253 253
-575.439 -422.678 451.101 248 252 253
-213.792 -150.558 148.745 252 254 253
-209.834 -147.242 144.383 254 255 255
-210.579 -147.242 143.294 255 254 255
-211.319 -147.242 142.201 255 254 255
-208.973 -145.104 139.055 255 255 255
-202.305 -139.992 133.11 255 255 255
-202.992 -139.992 132.06 255 255 255
-199.428 -137.074 128.276 255 255 255
-195.98 -134.259 124.628 255 255 255
-196.623 -134.259 123.611 255 255 255
-194.582 -132.435 120.925 255 255 255
-195.206 -132.435 119.916 255 255 255
-198.521 -134.259 120.539 255 255 255
-256.416 -163.993 121.361 74 83 112
-261.885 -166.682 120.644 69 76 104
-262.507 -166.682 119.286 71 78 105
-263.122 -166.682 117.924 73 80 106
-263.729 -166.682 116.559 72 79 106
-264.33 -166.682 115.191 69 78 104
-271.594 -170.879 116.686 65 75 100
-272.195 -170.879 115.277 61 72 96
-272.789 -170.879 113.865 62 70 92
-273.375 -170.879 112.45 59 69 88
-273.954 -170.879 111.032 56 66 83
-281.608 -175.288 112.439 61 69 81
-282.187 -175.288 110.979 68 73 84
-287.703 -178.353 111.43 114 119 124
-221.991 -137.074 83.3441 239 240 241
-222.42 -137.074 82.1928 251 246 253
-222.843 -137.074 81.0392 214 202 217
-223.259 -137.074 79.8835 115 95 121
-223.67 -137.074 78.7256 86 66 96
-224.075 -137.074 77.5656 73 55 81
-224.474 -137.074 76.4035 70 60 70
-220.248 -134.259 73.6941 148 146 143
-220.627 -134.259 72.5519 208 209 204
-221 -134.259 71.4078 252 251 252
-221.367 -134.259 70.2617 218 211 217
-221.728 -134.259 69.1138 156 143 153
-226.741 -137.074 69.3892 111 95 107
-227.097 -137.074 68.2134 127 111 123
-227.447 -137.074 67.0358 131 115 127
-227.792 -137.074 65.8564 130 115 128
-228.13 -137.074 64.6752 128 113 126
-228.462 -137.074 63.4923 127 113 125
-233.658 -139.992 63.6341 126 112 124
-233.985 -139.992 62.4226 125 111 124
-234.305 -139.992 61.2094 124 110 122
-237.981 -141.998 60.8542 122 108 120
-8631.54 -5143.5 2159.59 119 105 119
-8642.62 -5143.5 2114.83 117 103 118
-8653.46 -5143.5 2070.02 114 100 116
-269.702 -160.111 63.0407 111 98 114
-276.571 -163.993 63.1369 108 94 111
-301.142 -178.353 67.1064 101 88 105
-301.486 -178.353 65.5451 94 82 97
-301.821 -178.353 63.9821 82 71 87
-310.286 -183.156 64.0982 70 59 77
-310.614 -183.156 62.4896 59 49 68
-310.933 -183.156 60.8794 48 41 58
-311.245 -183.156 59.2675 45 39 59
-311.547 -183.156 57.654 45 39 61
-311.842 -183.156 56.039 45 41 61
-312.128 -183.156 54.4225 46 43 63
-312.406 -183.156 52.8044 48 45 65
-312.675 -183.156 51.185 50 48 70
789.265 -450.817 0 89 93 96
902.847 -515.7 4.6781 81 83 87
902.811 -515.7 9.35607 72 70 75
902.75 -515.7 14.0338 62 52 61
902.665 -515.7 18.7111 49 36 46
902.556 -515.7 23.388 36 23 33
1057.57 -604.359 32.889 39 26 38
1057.38 -604.359 38.3682 42 30 44
1057.17 -604.359 43.8465 43 32 47
1056.93 -604.359 49.3235 41 30 46
1056.66 -604.359 54.7993 44 33 49
1056.36 -604.359 60.2735 55 47 62
1179.73 -675.149 73.4472 70 63 78
1179.33 -675.149 79.5589 81 77 91
1178.91 -675.149 85.6684 83 81 94
1337.11 -766.048 104.132 83 82 94
1726.08 -992.953 206.682 85 85 96
1724.98 -992.953 215.622 84 83 97
1723.84 -992.953 224.557 83 82 96
2102.26 -1212.62 296.037 81 81 95
973.389 -565.255 178.486 52 55 73
972.451 -565.255 183.527 58 61 80
971.487 -565.255 188.563 59 64 83
970.497 -565.255 193.594 54 59 78
813.943 -474.569 166.755 50 55 76
813.068 -474.569 170.97 49 55 77
812.172 -474.569 175.18 49 55 77
966.277 -565.255 213.666 51 57 79
965.157 -565.255 218.669 54 60 82
964.011 -565.255 223.667 52 58 82
962.839 -565.255 228.659 52 58 82
961.641 -565.255 233.645 54 60 84
960.418 -565.255 238.625 59 65 89
959.168 -565.255 243.598 68 76 99
957.893 -565.255 248.564 68 75 99
760.79 -450.817 210.092 63 70 96
759.691 -450.817 214.031 60 67 93
758.572 -450.817 217.965 57 64 90
757.432 -450.817 221.892 62 69 95
518.028 -308.798 154.677 67 73 99
517.22 -308.798 157.359 67 73 99
516.397 -308.798 160.037 63 69 95
541.909 -324.579 171.026 59 65 90
541.015 -324.579 173.831 60 66 91
540.107 -324.579 176.632 61 67 93
568.461 -342.203 189.171 61 67 93
695.803 -419.59 235.559 66 71 99
694.573 -419.59 239.161 72 77 106
662.967 -401.218 232.127 72 77 106
661.755 -401.218 235.559 67 72 101
660.525 -401.218 238.985 63 68 97
659.278 -401.218 242.404 63 68 98
688.145 -419.59 257.073 64 69 98
686.804 -419.59 260.635 65 69 98
5039.27 -3084.76 1942.28 66 70 100
8334.18 -5111.99 3261.94 70 72 104
8317.17 -5111.99 3305.08 70 72 104
8299.93 -5111.99 3348.13 65 69 100
8282.47 -5111.99 3391.09 66 66 98
753.388 -474.569 350.311 82 91 162
751.563 -474.569 354.21 77 94 166
749.717 -474.569 358.099 155 180 229
747.852 -474.569 361.979 200 235 255
837.142 -604.359 647.09 227 248 253
830.391 -604.359 655.73 228 247 251
826.982 -604.359 660.024 229 248 250
823.551 -604.359 664.3 229 248 251
4132.38 -3084.76 3477.09 232 249 251
4114.31 -3084.76 3498.46 232 248 251
4096.12 -3084.76 3519.73 234 249 252
4077.83 -3084.76 3540.9 234 249 252
4059.43 -3084.76 3561.98 234 249 252
6696.53 -5111.99 5937.62 234 248 251
6665.67 -5111.99 5972.24 235 249 252
6634.64 -5111.99 6006.7 235 249 252
6603.42 -5111.99 6040.99 235 249 252
6572.04 -5111.99 6075.13 235 249 252
6540.47 -5111.99 6109.1 236 250 251
6508.73 -5111.99 6142.9 236 250 251
6476.81 -5111.99 6176.55 236 250 251
6444.72 -5111.99 6210.02 237 249 251
6412.46 -5111.99 6243.33 238 249 252
6380.02 -5111.99 6276.47 238 249 253
3830.25 -3084.76 3807.34 239 250 254
3810.48 -3084.76 3827.14 239 250 252
3790.59 -3084.76 3846.83 239 250 252
3770.61 -3084.76 3866.42 239 250 252
2363.79 -1944.18 2449.11 240 251 253
2351.06 -1944.18 2461.32 241 251 253
2338.28 -1944.18 2473.47 241 251 253
2325.43 -1944.18 2485.55 241 251 252
2312.52 -1944.18 2497.57 242 252 253
2299.55 -1944.18 2509.52 243 251 253
2286.52 -1944.18 2521.4 243 251 253
2273.42 -1944.18 2533.21 243 251 253
3586.28 -3084.76 4037.99 243 251 253
3565.3 -3084.76 4056.52 244 252 254
3544.24 -3084.76 4074.94 244 252 254
3523.08 -3084.76 4093.24 244 252 254
3501.82 -3084.76 4111.44 244 252 254
3480.47 -3084.76 4129.53 245 252 254
3459.03 -3084.76 4147.51 246 251 254
3437.49 -3084.76 4165.38 247 252 255
3415.86 -3084.76 4183.13 247 252 255
3394.14 -3084.76 4200.78 247 252 255
3372.33 -3084.76 4218.31 248 253 255
3350.43 -3084.76 4235.72 248 253 255
3328.44 -3084.76 4253.03 248 253 255
3306.35 -3084.76 4270.22 248 253 255
3284.18 -3084.76 4287.29 248 253 255
3261.93 -3084.76 4304.25 249 254 255
3239.58 -3084.76 4321.09 250 254 255
5331.39 -5111.99 7188.54 250 254 255
5294.07 -5111.99 7216.07 250 254 255
5256.61 -5111.99 7243.4 250 254 255
5219 -5111.99 7270.54 250 254 255
5181.26 -5111.99 7297.49 250 254 255
5143.38 -5111.99 7324.24 251 255 255
5105.36 -5111.99 7350.79 251 255 255
5067.21 -5111.99 7377.14 251 255 255
5028.92 -5111.99 7403.3 252 255 255
4990.49 -5111.99 7429.26 253 254 255
4951.93 -5111.99 7455.01 252 255 255
4913.23 -5111.99 7480.57 252 255 255
1824.14 -1944.18 2873.7 254 255 255
1809.23 -1944.18 2883.11 254 255 255
1794.27 -1944.18 2892.44 254 255 255
2823.07 -3084.76 4604.02 254 255 255
2799.18 -3084.76 4618.58 254 255 255
2775.21 -3084.76 4633.02 254 255 255
2751.17 -3084.76 4647.34 254 255 255
4519.21 -5111.99 7725 254 255 255
2702.86 -3084.76 4675.6 255 255 255
2678.6 -3084.76 4689.54 254 255 255
2654.26 -3084.76 4703.36 255 255 255
2629.86 -3084.76 4717.05 255 255 255
1642.05 -1944.18 2981.49 255 255 255
1626.58 -1944.18 2989.96 255 255 255
1611.07 -1944.18 2998.35 255 255 255
1595.51 -1944.18 3006.65 255 255 255
4071.82 -5111.99 7969.89 255 255 255
4030.47 -5111.99 7990.88 255 255 255
3989.01 -5111.99 8011.66 255 255 255
2382.03 -3084.76 4846.92 254 255 255
1485.43 -1944.18 3062.53 255 255 255
1469.55 -1944.18 3070.19 255 255 255
1065.82 -1425.52 2256.68 255 255 255
1437.65 -1944.18 3085.25 255 255 255
1421.65 -1944.18 3092.66 255 255 255
3695.87 -5111.99 8151.04 255 255 255
3653.58 -5111.99 8170.08 255 255 255
3611.2 -5111.99 8188.9 255 255 255
2153.49 -3084.76 4952.69 255 255 253
1324.83 -1944.18 3135.35 255 255 254
1308.57 -1944.18 3142.18 255 255 255
560.011 -842.522 1364.6 255 254 255
552.933 -842.522 1367.48 255 255 255
643.299 -992.953 1615 255 255 255
775.387 -1212.62 1976.33 255 255 255
899.465 -1425.52 2327.99 255 255 255
1210.26 -1944.18 3181.33 255 255 255
3138.86 -5111.99 8381.31 255 255 255
3095.39 -5111.99 8397.46 255 255 255
1788.87 -3084.76 5095.75 255 255 255
1762.45 -3084.76 5104.95 255 255 255
1735.97 -3084.76 5114.01 255 255 255
2832.87 -5111.99 8489.62 255 255 255
2788.84 -5111.99 8504.19 255 255 255
2744.74 -5111.99 8518.52 255 255 255
2700.56 -5111.99 8532.63 255 255 255
2656.32 -5111.99 8546.51 255 255 255
2612 -5111.99 8560.16 255 255 255
2567.61 -5111.99 8573.58 255 255 255
2523.15 -5111.99 8586.76 255 255 255
2255.02 -5111.99 8661.04 255 255 255
2210.12 -5111.99 8672.61 255 255 255
2165.15 -5111.99 8683.95 255 255 255
30.2726 -83.7034 143.382 255 255 255
28.997 -82.1946 140.95 255 255 255
27.9246 -81.2011 139.393 255 255 255
27.202 -81.2011 139.536 255 255 255
26.4786 -81.2011 139.675 255 255 255
25.2874 -79.7283 137.274 255 255 255
24.5758 -79.7283 137.404 255 255 255
23.8635 -79.7283 137.529 255 255 255
22.7288 -78.2756 135.143 255 255 255
22.0283 -78.2756 135.259 255 255 255
21.3271 -78.2756 135.371 255 255 255
20.6254 -78.2756 135.48 255 255 255
128.636 -565.255 981.222 255 255 255
78.2182 -450.817 785.38 255 255 255
77.6445 -565.255 986.567 255 255 255
72.5317 -565.255 986.956 255 255 255
67.4169 -565.255 987.319 255 255 255
62.3003 -565.255 987.655 255 255 255
52.1688 -515.7 901.351 255 255 255
-1102.82 -5111.99 8881.59 255 255 255
-1148.82 -5111.99 8875.75 255 255 255
-1194.8 -5111.99 8869.68 255 255 255
-748.704 -3084.76 5348.47 255 255 255
-489.334 -1944.18 3368.41 255 255 255
-371.582 -1425.52 2467.9 255 255 255
-326.963 -1212.62 2097.67 255 255 255
-337.827 -1212.62 2095.95 255 255 255
-348.682 -1212.62 2094.17 255 255 255
-422.648 -1425.52 2459.67 255 255 255
-435.387 -1425.52 2457.44 255 255 255
-448.114 -1425.52 2455.15 255 255 255
-628.499 -1944.18 3345.24 255 255 255
-473.532 -1425.52 2450.38 255 255 255
-486.222 -1425.52 2447.89 255 255 255
-498.899 -1425.52 2445.34 255 255 255
-511.563 -1425.52 2442.72 255 255 255
-524.213 -1425.52 2440.04 255 255 255
-456.674 -1212.62 2073.3 255 255 255
-467.41 -1212.62 2070.9 255 255 255
-562.077 -1425.52 2431.6 255 255 255
-783.758 -1944.18 3312.3 255 255 255
-800.91 -1944.18 3308.2 255 254 255
-818.041 -1944.18 3304 255 254 255
-835.149 -1944.18 3299.72 255 255 255
-852.235 -1944.18 3295.35 255 255 255
-869.298 -1944.18 3290.89 255 255 255
-886.338 -1944.18 3286.34 255 255 255
-903.354 -1944.18 3281.7 255 255 255
-674.817 -1425.52 2402.75 255 255 255
-687.258 -1425.52 2399.22 255 255 255
-487.367 -992.953 1668.69 255 255 255
-496.007 -992.953 1666.15 255 255 255
-504.633 -992.953 1663.55 255 255 255
-513.246 -992.953 1660.92 255 255 255
-521.845 -992.953 1658.23 255 255 255
-530.43 -992.953 1655.51 255 255 255
-539.001 -992.953 1652.74 255 255 255
-547.557 -992.953 1649.92 255 255 255
-556.099 -992.953 1647.06 255 255 255
-479.086 -842.522 1395.07 255 255 255
-486.308 -842.522 1392.57 255 255 255
-448.721 -766.048 1263.86 255 255 255
-455.264 -766.048 1261.52 255 255 255
-461.794 -766.048 1259.14 255 255 255
-412.742 -675.149 1107.61 255 255 255
-374.598 -604.359 989.549 255 255 255
-379.72 -604.359 987.595 255 255 255
-384.832 -604.359 985.614 255 255 255
-435.608 -675.149 1098.82 255 255 255
-500.71 -766.048 1244.18 255 255 255
-507.149 -766.048 1241.57 255 255 255
-513.576 -766.048 1238.93 255 255 255
-519.988 -766.048 1236.25 255 255 255
-526.387 -766.048 1233.54 255 255 255
-585.958 -842.522 1353.66 255 255 255
-592.964 -842.522 1350.61 255 255 255
-599.954 -842.522 1347.52 255 255 255
-606.928 -842.522 1344.39 255 255 255
-613.885 -842.522 1341.23 255 255 255
-620.827 -842.522 1338.03 255 255 255
-627.751 -842.522 1334.79 255 255 255
-634.659 -842.522 1331.52 255 255 255
-641.55 -842.522 1328.22 255 255 255
-589.567 -766.048 1204.62 255 255 255
-525.103 -675.149 1058.97 255 255 255
-530.583 -675.149 1056.24 255 255 255
-608.22 -766.048 1195.31 255 255 255
-614.405 -766.048 1192.14 255 255 255
-620.574 -766.048 1188.94 255 255 255
-626.726 -766.048 1185.71 255 255 255
-632.861 -766.048 1182.45 255 255 255
-638.979 -766.048 1179.15 255 255 255
-645.08 -766.048 1175.83 255 255 255
-651.164 -766.048 1172.47 255 255 255
-657.231 -766.048 1169.08 255 255 255
-663.279 -766.048 1165.66 255 255 255
-669.31 -766.048 1162.21 255 255 255
-498.311 -565.255 855.003 255 255 255
-502.734 -565.255 852.409 255 255 255
-507.144 -565.255 849.793 255 255 255
-466.694 -515.7 772.885 255 255 255
-470.692 -515.7 770.457 255 255 255
-436.819 -474.569 706.753 255 255 255
-440.475 -474.569 704.48 255 255 255
-444.12 -474.569 702.189 255 255 255
-447.752 -474.569 699.878 255 255 255
-428.781 -450.817 662.636 255 255 255
-432.209 -450.817 660.405 255 255 255
-435.625 -450.817 658.157 255 255 255
-507.585 -474.569 657.776 252 255 255
-510.986 -474.569 655.137 252 255 255
-514.374 -474.569 652.48 252 255 255
-457.766 -419.59 574.526 252 255 255
-460.737 -419.59 572.146 252 255 255
-463.696 -419.59 569.751 252 255 255
-466.641 -419.59 567.341 252 255 255
-469.575 -419.59 564.916 253 255 255
-1118.15 -992.953 1331.09 253 255 255
-1125.04 -992.953 1325.28 252 255 255
-1131.89 -992.953 1319.43 251 255 255
-1138.71 -992.953 1313.55 251 255 255
-1145.5 -992.953 1307.63 251 255 255
-1152.26 -992.953 1301.68 250 255 255
-1158.99 -992.953 1295.69 250 255 255
-1165.69 -992.953 1289.67 250 255 255
-994.743 -842.522 1089.14 251 255 255
-1000.37 -842.522 1083.98 250 255 255
-1005.98 -842.522 1078.78 249 254 255
-1192.16 -992.953 1265.23 249 254 255
-1198.7 -992.953 1259.04 249 254 255
-733.549 -604.359 762.52 249 254 255
-737.49 -604.359 758.709 249 254 255
-1821.07 -1425.52 1706.55 245 253 255
-2495.68 -1944.18 2314.57 244 252 254
-2507.64 -1944.18 2301.6 244 252 254
-2519.53 -1944.18 2288.58 244 252 255
-2531.35 -1944.18 2275.49 244 252 255
-2543.11 -1944.18 2262.35 244 252 254
-2554.8 -1944.18 2249.14 244 252 253
-2566.42 -1944.18 2235.87 244 252 254
-2577.97 -1944.18 2222.54 245 251 254
-578.128 -419.59 453.208 250 254 255
-210.304 -145.812 144.707 254 255 255
-211.051 -145.812 143.615 255 255 255
-211.793 -145.812 142.52 255 255 255
-202.025 -138.606 134.432 255 255 255
-202.719 -138.606 133.383 255 255 255
-199.151 -135.706 129.562 255 255 255
-195.699 -132.907 125.878 255 255 255
-196.348 -132.907 124.862 255 255 255
-196.993 -132.907 123.843 255 255 255
-194.937 -131.095 121.146 255 255 255
-195.562 -131.095 120.134 255 255 255
-196.182 -131.095 119.119 255 255 255
-199.517 -132.907 119.734 255 255 255
-263.826 -165.135 118.24 70 77 106
-264.435 -165.135 116.871 69 77 105
-265.037 -165.135 115.499 67 74 102
-265.632 -165.135 114.124 64 71 99
-266.22 -165.135 112.747 63 70 95
-266.8 -165.135 111.366 63 70 93
-274.129 -169.308 112.76 62 72 93
-274.709 -169.308 111.339 66 74 89
-275.283 -169.308 109.914 58 64 75
-275.848 -169.308 108.486 74 79 85
-276.407 -169.308 107.055 140 147 145
-222.856 -135.706 82.3542 234 222 235
-223.28 -135.706 81.1984 131 113 137
-223.698 -135.706 80.0404 89 69 96
-219.488 -132.907 77.2536 74 56 81
-219.886 -132.907 76.1153 74 63 76
-220.277 -132.907 74.975 153 151 148
-220.662 -132.907 73.8326 222 224 214
-221.042 -132.907 72.6883 252 251 250
-221.416 -132.907 71.542 250 245 247
-221.783 -132.907 70.3938 212 202 208
-222.145 -132.907 69.2437 128 112 123
-222.501 -132.907 68.0917 124 108 119
-222.851 -132.907 66.938 131 115 125
-223.195 -132.907 65.7824 134 118 128
-223.533 -132.907 64.625 133 117 127
-228.578 -135.706 64.8023 131 116 127
-228.911 -135.706 63.617 130 115 126
-229.237 -135.706 62.4301 128 115 125
-229.558 -135.706 61.2415 127 114 124
-234.785 -138.606 61.3347 127 114 123
-235.1 -138.606 60.1174 127 114 124
-8682.17 -5111.99 2172.25 126 113 124
-8693.31 -5111.99 2127.24 126 112 124
-8704.22 -5111.99 2082.17 126 112 123
-8714.89 -5111.99 2037.04 124 111 122
-8725.33 -5111.99 1991.86 122 108 121
-302.013 -176.737 67.3004 121 107 120
-302.358 -176.737 65.7346 119 105 118
-302.694 -176.737 64.1671 116 101 114
-303.023 -176.737 62.5979 109 94 108
-311.537 -181.511 62.6754 102 89 103
-311.858 -181.511 61.0604 95 82 96
-312.17 -181.511 59.4437 85 74 88
-312.474 -181.511 57.8254 73 62 76
-312.769 -181.511 56.2056 63 53 68
-304.822 -176.737 53.1486 52 43 59
-313.335 -181.511 52.9614 43 34 52
-313.605 -181.511 51.3371 42 35 55
-313.867 -181.511 49.7116 42 36 57
-314.12 -181.511 48.0846 44 38 61
907.236 -511.984 0 91 98 101
907.224 -511.984 4.70078 85 89 92
907.188 -511.984 9.40143 79 82 85
907.127 -511.984 14.1018 72 73 77
907.042 -511.984 18.8018 62 55 64
906.932 -511.984 23.5014 51 40 51
906.798 -511.984 28.2002 43 31 43
906.64 -511.984 32.8984 46 34 47
993.653 -561.234 41.2121 49 37 51
1061.94 -600.097 55.0734 53 43 59
1061.32 -600.097 66.0751 68 63 78
1185.34 -670.45 79.9644 76 72 86
1184.91 -670.45 86.1051 78 76 89
1344.05 -760.789 104.673 78 77 89
1734.22 -986.295 216.777 90 89 101
1733.07 -986.295 225.76 87 87 101
2115.23 -1204.61 286.696 82 82 96
2113.72 -1204.61 297.652 77 78 91
977.256 -561.234 184.434 63 67 86
778.444 -447.501 151.094 55 60 80
777.651 -447.501 155.125 48 53 73
817.815 -471.107 167.548 55 60 80
816.936 -471.107 171.783 57 62 83
816.035 -471.107 176.014 55 61 83
815.112 -471.107 180.24 55 61 83
969.925 -561.234 219.75 58 64 86
968.773 -561.234 224.772 56 62 85
967.596 -561.234 229.789 51 57 81
881.589 -511.984 214.195 53 59 83
965.162 -561.234 239.803 56 62 86
963.907 -561.234 244.801 62 68 92
962.626 -561.234 249.792 74 80 104
763.259 -447.501 215.037 63 70 96
762.134 -447.501 218.988 63 70 96
801.132 -471.107 234.694 63 69 96
634.712 -373.816 189.518 62 67 96
597.453 -352.422 181.769 60 66 93
596.503 -352.422 184.862 59 65 91
595.537 -352.422 187.951 61 67 93
543.303 -322.042 174.566 65 71 95
542.391 -322.042 177.379 63 69 95
541.465 -322.042 180.187 60 66 92
699.009 -416.467 236.644 59 65 92
697.773 -416.467 240.263 59 64 93
665.982 -398.207 233.183 65 71 99
664.764 -398.207 236.63 66 72 101
663.529 -398.207 240.072 66 71 100
662.277 -398.207 243.506 65 70 99
691.315 -416.467 258.257 63 69 98
689.968 -416.467 261.836 61 67 95
739.915 -447.501 285.185 64 68 98
738.428 -447.501 289.015 69 72 103
8365.36 -5079.94 3324.23 71 72 105
8348.03 -5079.94 3367.53 64 67 98
8330.47 -5079.94 3410.74 62 63 94
832.286 -511.984 361.079 58 58 95
830.404 -511.984 365.386 88 87 131
908.196 -561.234 405.246 102 101 153
756.972 -471.107 351.977 79 87 158
755.138 -471.107 355.894 90 105 175
753.284 -471.107 359.802 143 167 219
827.671 -600.097 667.623 231 249 252
6947.46 -5079.94 5723.86 233 248 251
6887.77 -5079.94 5795.55 233 248 251
6857.65 -5079.94 5831.16 233 248 251
6827.34 -5079.94 5866.61 234 249 252
6796.86 -5079.94 5901.91 234 249 252
6766.18 -5079.94 5937.05 234 249 252
6735.33 -5079.94 5972.03 235 249 252
6704.3 -5079.94 6006.85 235 249 252
6673.08 -5079.94 6041.5 236 250 252
6641.69 -5079.94 6076 235 249 252
6610.12 -5079.94 6110.33 235 249 252
6578.37 -5079.94 6144.5 237 250 251
6546.44 -5079.94 6178.5 236 250 251
6514.34 -5079.94 6212.34 237 250 251
6482.07 -5079.94 6246.01 238 249 251
6449.62 -5079.94 6279.51 238 249 251
6416.99 -5079.94 6312.84 238 249 251
6384.2 -5079.94 6346.01 240 251 253
6351.23 -5079.94 6379 239 251 252
6318.09 -5079.94 6411.83 240 251 252
6284.79 -5079.94 6444.48 241 251 253
6251.31 -5079.94 6476.95 241 251 253
2364.28 -1931.66 2475.16 242 252 254
2351.43 -1931.66 2487.38 242 252 254
1714.47 -1416.19 1832.52 242 252 253
2325.52 -1931.66 2511.61 242 252 253
2312.48 -1931.66 2523.63 242 252 253
2299.37 -1931.66 2535.58 243 251 253
2286.2 -1931.66 2547.46 244 252 254
3606.81 -3065.2 4061.11 245 252 254
3585.72 -3065.2 4079.74 245 252 254
3564.53 -3065.2 4098.26 245 252 254
3543.25 -3065.2 4116.68 245 252 254
3521.87 -3065.2 4134.98 246 252 255
3500.4 -3065.2 4153.17 246 252 255
3478.83 -3065.2 4171.26 247 252 255
3457.17 -3065.2 4189.23 248 253 255
3435.42 -3065.2 4207.08 248 253 255
2151.2 -1931.66 2662.44 248 253 255
2137.37 -1931.66 2673.55 248 253 255
3369.61 -3065.2 4259.97 249 254 255
3347.49 -3065.2 4277.38 248 253 255
3325.28 -3065.2 4294.66 248 253 255
3302.99 -3065.2 4311.83 249 254 255
3280.6 -3065.2 4328.89 250 254 255
5399.67 -5079.94 7202.32 250 254 255
5362.28 -5079.94 7230.2 250 254 255
5324.75 -5079.94 7257.88 251 255 255
5287.07 -5079.94 7285.38 251 255 255
5249.25 -5079.94 7312.67 251 255 255
5211.29 -5079.94 7339.77 251 255 255
5173.19 -5079.94 7366.68 251 255 255
5134.95 -5079.94 7393.38 251 255 255
5096.57 -5079.94 7419.89 251 255 255
5058.06 -5079.94 7446.2 251 255 255
5019.41 -5079.94 7472.31 253 254 255
4980.62 -5079.94 7498.21 253 255 255
4941.7 -5079.94 7523.92 253 255 255
4902.65 -5079.94 7549.42 254 255 255
4824.16 -5079.94 7599.82 254 255 255
1819.4 -1931.66 2899.32 254 255 255
1804.35 -1931.66 2908.7 254 255 255
2839.23 -3065.2 4630.38 254 255 255
2815.21 -3065.2 4645.02 254 255 255
4625.67 -5079.94 7722.24 254 255 255
4585.6 -5079.94 7746.1 254 255 255
4545.4 -5079.94 7769.76 254 255 255
4505.08 -5079.94 7793.21 254 255 255
2693.93 -3065.2 4716.39 254 255 255
2669.46 -3065.2 4730.29 255 255 255
2644.91 -3065.2 4744.06 255 255 255
1651.28 -1931.66 2998.25 255 255 255
1635.73 -1931.66 3006.77 255 255 255
1187.79 -1416.19 2210.59 255 254 255
1604.48 -1931.66 3023.56 255 255 255
4095.41 -5079.94 8016.07 255 255 255
4053.82 -5079.94 8037.18 255 255 255
4012.12 -5079.94 8058.08 255 255 255
2395.66 -3065.2 4874.67 254 255 255
2370.37 -3065.2 4887.02 255 255 255
1477.81 -1931.66 3087.45 255 255 255
1461.79 -1931.66 3095.06 255 255 255
1445.73 -1931.66 3102.6 255 255 255
1429.64 -1931.66 3110.05 255 255 255
3717.28 -5079.94 8198.27 255 255 255
3674.75 -5079.94 8217.42 255 255 255
3632.13 -5079.94 8236.35 255 255 255
2165.82 -3065.2 4981.05 255 255 254
988.719 -1416.19 2306.51 255 255 254
1332.28 -1931.66 3152.98 255 255 254
2088.14 -3065.2 5014.11 255 255 255
2062.13 -3065.2 5024.86 255 255 255
655.148 -986.295 1620.28 255 255 255
789.901 -1204.61 1983.04 255 255 255
779.615 -1204.61 1987.11 255 255 255
769.309 -1204.61 1991.12 255 255 255
892.289 -1416.19 2345.5 255 255 255
3157.04 -5079.94 8429.88 255 255 255
3113.32 -5079.94 8446.12 255 255 255
1852.13 -3065.2 5106 254 255 255
1825.65 -3065.2 5115.53 255 255 255
1799.12 -3065.2 5124.92 255 255 255
1772.54 -3065.2 5134.17 255 255 255
1745.91 -3065.2 5143.29 255 255 255
2849.28 -5079.94 8538.82 255 255 255
2805 -5079.94 8553.46 255 255 255
2760.64 -5079.94 8567.88 255 255 255
2716.21 -5079.94 8582.07 255 255 255
2671.71 -5079.94 8596.03 255 255 255
2627.13 -5079.94 8609.76 255 255 255
2582.49 -5079.94 8623.26 255 255 255
2537.77 -5079.94 8636.52 255 255 255
2492.99 -5079.94 8649.55 255 255 255
2448.14 -5079.94 8662.36 255 255 255
2268.09 -5079.94 8711.23 255 255 255
2222.92 -5079.94 8722.87 255 255 255
2177.7 -5079.94 8734.27 255 255 255
35.0048 -85.2019 146.864 255 255 255
34.2434 -85.2019 147.043 255 255 255
33.481 -85.2019 147.219 255 255 255
32.3229 -84.1734 145.611 255 255 255
31.5679 -84.1734 145.777 255 255 255
30.2549 -82.6509 143.298 255 255 255
29.512 -82.6509 143.453 255 255 255
28.2464 -81.1515 140.999 255 255 255
27.1806 -80.1641 139.426 255 255 255
26.4578 -80.1641 139.565 255 255 255
25.7343 -80.1641 139.7 255 255 255
25.0101 -80.1641 139.832 255 255 255
23.8419 -78.7004 137.404 255 255 255
23.1296 -78.7004 137.526 255 255 255
22.0055 -77.2567 135.119 255 255 255
21.3051 -77.2567 135.231 255 255 255
20.6041 -77.2567 135.34 255 255 255
19.9026 -77.2567 135.444 255 255 255
78.0281 -561.234 991.441 255 255 255
72.89 -561.234 991.832 255 255 255
67.7499 -561.234 992.197 255 255 255
62.6081 -561.234 992.534 255 255 255
-641.351 -3065.2 5393.54 255 255 255
-669.289 -3065.2 5390.15 255 255 255
-1155.48 -5079.94 8927.19 255 255 255
-1201.72 -5079.94 8921.08 255 255 255
-752.991 -3065.2 5379.09 255 255 255
-492.085 -1931.66 3387.34 255 255 255
-373.633 -1416.19 2481.52 255 255 255
-328.746 -1204.61 2109.11 255 255 255
-339.669 -1204.61 2107.38 255 255 255
-350.584 -1204.61 2105.59 255 255 255
-424.981 -1416.19 2473.24 255 255 255
-437.79 -1416.19 2471.01 255 255 255
-450.588 -1416.19 2468.71 255 255 255
-463.373 -1416.19 2466.34 255 255 255
-476.146 -1416.19 2463.91 255 255 255
-488.906 -1416.19 2461.41 255 255 255
-501.653 -1416.19 2458.84 255 255 255
-437.538 -1204.61 2089.25 255 255 255
-448.357 -1204.61 2086.95 255 255 255
-459.164 -1204.61 2084.6 255 255 255
-469.959 -1204.61 2082.2 255 255 255
-480.742 -1204.61 2079.73 255 255 255
-577.84 -1416.19 2442.06 255 255 255
-805.412 -1931.66 3326.79 255 254 255
-822.639 -1931.66 3322.58 255 254 255
-839.844 -1931.66 3318.27 255 255 255
-628.326 -1416.19 2429.56 255 255 255
-874.185 -1931.66 3309.39 255 255 255
-891.321 -1931.66 3304.81 255 254 255
-908.432 -1931.66 3300.15 255 255 255
-678.542 -1416.19 2416.01 255 255 255
-587.809 -1204.61 2052.04 254 255 255
-598.433 -1204.61 2048.97 254 255 255
-498.663 -986.295 1675.07 255 255 255
-507.335 -986.295 1672.46 255 255 255
-515.994 -986.295 1669.81 255 255 255
-524.639 -986.295 1667.11 255 255 255
-452.437 -836.791 1412.08 255 255 255
-459.747 -836.791 1409.72 255 255 255
-550.489 -986.295 1658.76 255 255 255
-559.076 -986.295 1655.88 255 255 255
-481.604 -836.791 1402.41 255 255 255
-488.864 -836.791 1399.89 255 255 255
-451.051 -760.789 1270.42 255 255 255
-457.627 -760.789 1268.07 255 255 255
-464.192 -760.789 1265.68 255 255 255
-414.846 -670.45 1113.26 255 255 255
-420.609 -670.45 1111.09 255 255 255
-426.36 -670.45 1108.9 255 255 255
-432.1 -670.45 1106.67 255 255 255
-437.828 -670.45 1104.42 255 255 255
-443.545 -670.45 1102.14 255 255 255
-509.783 -760.789 1248.02 255 255 255
-516.242 -760.789 1245.36 255 255 255
-522.688 -760.789 1242.67 255 255 255
-529.12 -760.789 1239.94 255 255 255
-589.038 -836.791 1360.78 255 255 255
-596.081 -836.791 1357.71 255 255 255
-603.107 -836.791 1354.6 255 255 255
-610.118 -836.791 1351.46 255 255 255
-617.112 -836.791 1348.28 255 255 255
-624.09 -836.791 1345.06 255 255 255
-631.051 -836.791 1341.81 255 255 255
-637.995 -836.791 1338.52 255 255 255
-644.922 -836.791 1335.2 255 255 255
-592.628 -760.789 1210.87 255 255 255
-527.78 -670.45 1064.37 255 255 255
-605.144 -760.789 1204.67 255 255 255
-611.378 -760.789 1201.52 255 255 255
-617.595 -760.789 1198.33 255 255 255
-623.796 -760.789 1195.12 255 255 255
-629.98 -760.789 1191.87 255 255 255
-636.147 -760.789 1188.59 255 255 255
-642.297 -760.789 1185.28 255 255 255
-571.433 -670.45 1041.59 255 255 255
-654.545 -760.789 1178.56 255 255 255
-660.643 -760.789 1175.15 255 255 255
-666.723 -760.789 1171.71 255 255 255
-672.785 -760.789 1168.24 255 255 255
-678.829 -760.789 1164.74 255 255 255
-540.202 -600.097 915.938 255 255 255
-509.649 -561.234 853.992 255 255 255
-514.068 -561.234 851.339 255 255 255
-472.974 -511.984 774.192 255 255 255
-438.897 -471.107 710.115 255 255 255
-442.571 -471.107 707.831 255 255 255
-446.232 -471.107 705.529 255 255 255
-449.882 -471.107 703.207 255 255 255
-430.795 -447.501 665.748 255 255 255
-434.239 -447.501 663.507 255 255 255
-437.671 -447.501 661.248 255 255 255
-509.999 -471.107 660.904 253 255 255
-513.417 -471.107 658.253 253 255 255
-516.821 -471.107 655.584 253 255 255
-459.875 -416.467 577.173 252 255 255
-442.567 -398.207 549.582 252 255 255
-445.408 -398.207 547.281 252 255 255
-448.238 -398.207 544.966 252 255 255
-471.738 -416.467 567.518 254 255 255
-1124.14 -986.295 1338.21 253 255 255
-1131.06 -986.295 1332.37 252 255 255
-1137.95 -986.295 1326.49 252 255 255
-1144.8 -986.295 1320.58 252 255 255
-1151.63 -986.295 1314.63 251 255 255
-1158.43 -986.295 1308.65 251 255 255
-1165.19 -986.295 1302.63 250 255 255
-994.286 -836.791 1100.04 250 255 255
-909.148 -760.789 995.426 250 255 255
-914.294 -760.789 990.702 250 255 255
-919.415 -760.789 985.951 249 254 255
-814.732 -670.45 864.667 249 254 255
-741.18 -600.097 762.504 249 254 255
-745.12 -600.097 758.654 249 254 255
-749.041 -600.097 754.783 247 254 255
-1822.2 -1416.19 1725.43 245 253 255
-2497.61 -1931.66 2340.55 245 253 255
-2509.71 -1931.66 2327.58 245 253 255
-2521.73 -1931.66 2314.54 246 253 255
-2533.69 -1931.66 2301.45 245 253 255
-2545.58 -1931.66 2288.29 245 253 255
-4058.15 -3065.2 3610.13 244 252 254
-4076.8 -3065.2 3589.05 244 252 254
-4095.35 -3065.2 3567.88 244 252 254
-210.762 -144.377 145.022 255 255 255
-203.922 -139.197 138.764 255 255 255
-204.638 -139.197 137.706 255 255 255
-202.426 -137.215 134.698 255 255 255
-198.854 -134.333 130.84 255 255 255
-195.398 -131.552 127.12 255 255 255
-196.054 -131.552 126.106 255 255 255
-196.705 -131.552 125.089 255 255 255
-190.708 -127.124 119.892 255 255 255
-191.327 -127.124 118.902 255 255 255
-191.941 -127.124 117.91 255 255 255
-196.527 -129.75 119.329 255 255 255
-197.143 -129.75 118.309 255 255 255
-264.515 -163.581 118.549 64 71 102
-265.126 -163.581 117.176 61 70 99
-261.414 -160.924 113.92 60 68 97
-262.001 -160.924 112.564 60 67 94
-262.58 -160.924 111.205 59 66 91
-267.497 -163.581 111.657 59 66 90
-268.072 -163.581 110.269 60 67 86
-268.64 -163.581 108.879 56 62 76
-223.28 -134.333 82.5107 150 132 153
-223.705 -134.333 81.3527 88 67 93
-219.483 -131.552 78.5322 77 57 84
-219.887 -131.552 77.394 75 61 76
-220.285 -131.552 76.2536 130 125 124
-220.677 -131.552 75.1111 226 230 216
-221.063 -131.552 73.9667 248 248 244
-221.444 -131.552 72.8203 255 254 254
-218.781 -129.75 70.6907 248 243 247
-219.144 -129.75 69.5561 208 194 204
-219.502 -129.75 68.4197 146 130 142
-222.905 -131.552 68.2154 117 101 113
-223.256 -131.552 67.0596 134 118 128
-223.6 -131.552 65.9018 136 120 130
-223.939 -131.552 64.7424 135 119 129
-224.271 -131.552 63.5812 133 117 128
-224.597 -131.552 62.4183 132 116 127
-224.918 -131.552 61.2537 132 116 126
-225.232 -131.552 60.0875 132 116 126
-230.309 -134.333 60.1654 132 116 126
-247.861 -144.377 63.3806 131 115 125
-8732.48 -5079.94 2184.84 129 115 125
-8743.69 -5079.94 2139.57 129 115 124
-8754.66 -5079.94 2094.23 128 115 125
-8765.39 -5079.94 2048.84 128 115 125
-302.514 -175.111 69.0592 126 113 123
-302.868 -175.111 67.4908 125 112 122
-303.213 -175.111 65.9206 123 110 119
-303.551 -175.111 64.3487 122 110 118
-303.88 -175.111 62.775 121 109 118
-304.201 -175.111 61.1996 118 105 116
-304.514 -175.111 59.6226 116 102 113
-304.819 -175.111 58.0439 113 100 110
-305.116 -175.111 56.4638 108 95 106
-305.404 -175.111 54.8821 102 89 102
-305.684 -175.111 53.299 95 82 96
-305.957 -175.111 51.7143 87 75 89
-306.22 -175.111 50.1283 80 68 82
-314.78 -179.855 49.8562 68 57 74
-315.034 -179.855 48.2245 58 48 66
911.575 -508.223 0 93 103 106
911.563 -508.223 4.72326 86 94 96
911.526 -508.223 9.44638 79 84 87
911.465 -508.223 14.1693 69 72 75
911.379 -508.223 18.8918 58 58 63
911.269 -508.223 23.6137 45 39 48
911.134 -508.223 28.3351 41 31 43
910.975 -508.223 33.0557 46 34 48
910.792 -508.223 37.7754 47 36 50
1066.56 -595.78 66.4012 74 68 83
