ply
format ascii 1.0
element vertex 1322
property float x
property float y
property float z
property uchar red
property uchar green
property uchar blue
end_header
5.00482 -137.887 156.804 192 216 245
4.29392 -141.229 160.63 192 216 245
3.48268 -142.091 161.63 192 216 245
2.64514 -142.091 161.646 192 216 245
1.80756 -142.091 161.657 193 217 246
1.01316 -148.426 168.872 193 217 246
-231.08 -2330.29 2641.25 196 219 242
-203.968 -1941.9 2200.02 196 219 242
-215.365 -1941.9 2198.93 196 219 242
-226.755 -1941.9 2197.78 196 219 242
-326.705 -2330.29 2631.14 197 220 243
-800.476 -1792.53 1875.84 215 230 246
-585.134 -1294.6 1351.76 216 231 247
-355.278 -776.762 809.225 215 229 246
-359.466 -776.762 807.374 215 228 245
-240.243 -485.476 497.381 218 231 248
-224.138 -448.132 457.966 218 231 248
-256.053 -506.584 516.381 218 231 248
-270.485 -529.61 538.458 219 232 249
-316.42 -613.233 621.847 219 232 248
-379.57 -728.214 736.487 219 232 247
-398.52 -728.214 726.407 219 233 245
-378.616 -685.378 681.724 220 234 246
-316.899 -568.362 563.698 220 234 246
-285.053 -506.584 500.956 220 234 246
-270.034 -475.568 468.893 220 234 246
-267.01 -466.057 458.137 223 234 247
-269.381 -466.057 456.748 223 234 247
-277.289 -475.568 464.639 224 235 247
-285.52 -485.476 472.846 225 236 247
-287.966 -485.476 471.36 225 236 247
-284.478 -475.568 460.272 225 236 247
-286.859 -475.568 458.792 225 236 247
-295.258 -485.476 466.827 225 236 247
-304.007 -495.805 475.19 225 236 247
-313.127 -506.584 483.905 225 236 247
-329.977 -529.61 504.197 225 236 247
-325.194 -517.841 491.315 227 236 247
-300.982 -475.568 449.654 227 236 247
-251.899 -394.964 372.141 227 236 247
-194.489 -302.634 284.143 227 236 247
-171.464 -264.805 247.74 228 237 248
-172.745 -264.805 246.848 229 237 247
-180.164 -274.151 254.631 230 238 247
-214.248 -323.651 299.5 231 239 248
-310.747 -466.057 429.675 231 239 248
-474.196 -706.147 648.575 232 240 249
-1125.65 -1664.49 1522.97 232 240 249
-1203.02 -1664.49 1462.63 234 239 247
-847.408 -1165.14 1019.46 234 239 246
-631.614 -863.069 751.895 235 240 246
-536.204 -728.214 631.641 234 239 245
-493.23 -665.796 574.953 235 240 246
-434.177 -582.571 500.841 236 241 247
-317.648 -423.688 362.607 236 241 247
-274.59 -364.107 310.197 236 241 247
-252.52 -332.898 282.304 236 241 247
-206.727 -270.963 228.714 236 241 247
-184.332 -240.236 201.825 236 241 247
-176.288 -228.459 191.021 236 241 247
-177.276 -228.459 190.105 236 241 247
-181.823 -233.029 192.967 237 240 247
-188.475 -240.236 197.962 237 240 247
-191.472 -242.738 199.034 237 240 247
-205.334 -258.921 211.242 237 241 245
-232.229 -291.286 236.447 237 241 245
-270.668 -337.723 272.743 237 241 245
-1635.48 -1941.9 1485.56 237 240 247
-1643.15 -1941.9 1477.07 238 241 248
-1414.96 -1664.49 1258.74 238 241 248
-1326.7 -1553.52 1167.97 238 241 248
-1332.73 -1553.52 1161.08 238 241 248
-1338.73 -1553.52 1154.16 238 241 248
-586.811 -613.233 377.45 240 243 250
-588.759 -613.233 374.404 239 242 249
-590.691 -613.233 371.348 239 242 249
-459.573 -475.568 285.607 239 242 249
-418.357 -431.534 256.998 239 242 249
-444.37 -456.919 269.816 239 242 249
-445.762 -456.919 267.51 239 242 249
-447.142 -456.919 265.197 239 242 249
-448.511 -456.919 262.876 238 241 248
-449.867 -456.919 260.549 238 241 248
-2224.31 -2118.44 928.455 233 238 246
-1532.5 -1456.43 630.381 233 238 246
-1445.41 -1370.76 585.818 233 238 246
-1367.96 -1294.6 546.192 233 238 247
-1174.95 -1109.66 462.083 233 237 248
-950.915 -896.264 368.299 232 236 249
-854.244 -803.547 325.777 232 236 249
-827.39 -776.762 310.635 230 236 248
-828.988 -776.762 306.344 229 236 248
-2527.1 -2330.29 802.099 228 235 247
-1947.1 -1792.53 606.919 227 234 248
-1584.55 -1456.43 484.918 226 234 248
-1587.04 -1456.43 476.701 226 234 247
-1956.29 -1792.53 576.581 225 233 246
-2122.53 -1941.9 613.639 224 233 246
-2318.92 -2118.44 657.418 224 233 246
-550.61 -495.805 122.698 223 232 251
-551.238 -495.805 119.843 222 231 249
-589.478 -529.61 124.961 221 230 250
-1236.44 -1109.66 255.421 220 228 253
-1444.03 -1294.6 290.513 217 224 255
-1530.55 -1370.76 299.675 212 219 253
-1532.08 -1370.76 291.741 208 212 251
-2005.44 -1792.53 371.121 203 200 252
-2380.64 -2118.44 377.056 102 79 147
-2382.56 -2118.44 364.715 76 53 121
-19.5835 -17.3384 2.37744 36 9 43
-19.3508 -17.1219 2.24751 35 8 40
-18.9992 -16.8009 2.10697 33 7 37
-18.555 -16.3989 1.96044 32 7 34
-18.5649 -16.3989 1.86427 32 6 30
-18.2785 -16.1377 1.73989 31 7 22
-17.8908 -15.7878 1.6095 30 8 17
-17.8144 -15.7133 1.50961 29 7 15
-17.7502 -15.65 1.41158 29 7 15
-17.7097 -15.6081 1.31605 29 7 15
-17.6925 -15.5872 1.22264 27 7 12
-17.6868 -15.5768 1.13019 25 7 10
-17.657 -15.5456 1.03645 24 7 10
-17.5917 -15.4836 0.941187 24 7 10
-17.4227 -15.3308 0.841634 24 7 10
-17.4268 -15.3308 0.751351 23 6 9
-17.4305 -15.3308 0.661043 23 6 9
-17.4337 -15.3308 0.570718 22 6 9
-17.4364 -15.3308 0.480381 21 6 8
-17.4387 -15.3308 0.390027 20 6 8
-17.4405 -15.3308 0.299667 20 6 8
-17.4418 -15.3308 0.209295 20 6 8
-17.4426 -15.3308 0.118921 20 6 8
-17.443 -15.3308 0.0285399 20 6 8
-17.4429 -15.3308 -0.0618378 20 6 8
-17.4424 -15.3308 -0.152218 20 6 8
-17.4414 -15.3308 -0.242594 20 6 8
-17.4399 -15.3308 -0.332959 20 6 8
-17.4379 -15.3308 -0.42332 20 6 8
-17.4355 -15.3308 -0.513665 20 6 8
-17.4326 -15.3308 -0.604001 20 6 8
-17.4292 -15.3308 -0.694316 19 5 7
-17.4254 -15.3308 -0.784617 19 5 7
-17.4211 -15.3308 -0.874896 19 5 7
-17.4163 -15.3308 -0.965148 19 5 7
-17.4111 -15.3308 -1.05538 19 5 7
-17.4054 -15.3308 -1.14558 18 4 6
-17.3992 -15.3308 -1.23575 17 4 6
-17.3926 -15.3308 -1.32588 16 4 6
-17.3855 -15.3308 -1.41598 15 4 6
-17.3779 -15.3308 -1.50604 15 4 5
-17.3699 -15.3308 -1.59607 14 4 5
-17.3614 -15.3308 -1.68605 14 4 5
-17.3524 -15.3308 -1.77598 14 4 5
-17.343 -15.3308 -1.86587 14 4 5
-17.3331 -15.3308 -1.9557 14 4 5
-17.3227 -15.3308 -2.04549 14 4 5
-17.3119 -15.3308 -2.13521 14 4 5
-17.3006 -15.3308 -2.22489 14 4 5
-17.2888 -15.3308 -2.3145 14 4 5
-17.2766 -15.3308 -2.40405 14 4 5
-17.2639 -15.3308 -2.49353 14 4 5
-17.2507 -15.3308 -2.58295 14 4 5
-17.2371 -15.3308 -2.6723 14 4 5
-17.223 -15.3308 -2.76157 14 4 5
-17.2085 -15.3308 -2.85078 14 4 5
-17.1935 -15.3308 -2.9399 14 4 5
17.5222 -15.2402 0 23 3 12
17.522 -15.2402 0.0907901 23 4 12
17.5213 -15.2402 0.181578 23 3 14
17.5201 -15.2402 0.272361 23 3 15
17.5185 -15.2402 0.363136 24 4 16
17.5164 -15.2402 0.453902 24 4 17
17.5138 -15.2402 0.544656 25 4 23
17.5107 -15.2402 0.635394 26 4 29
17.5072 -15.2402 0.726116 27 4 31
17.5032 -15.2402 0.816819 28 5 32
17.4987 -15.2402 0.907499 29 6 35
17.4938 -15.2402 0.998155 30 7 37
17.4884 -15.2402 1.08878 30 6 40
17.4825 -15.2402 1.17938 34 6 51
938.963 -827.327 152.131 144 182 226
905.812 -798.799 151.581 144 182 226
905.014 -798.799 156.272 144 182 227
1140.07 -1007.18 202.949 144 181 228
579.196 -514.781 121.792 144 181 228
565.98 -503.591 122.078 144 181 228
565.339 -503.591 125.009 144 181 228
577.233 -514.781 130.78 144 181 228
617.729 -551.552 143.324 144 181 228
996.657 -890.968 236.691 144 181 228
1522.4 -1362.66 369.891 144 181 228
2584.79 -2316.52 642.216 144 181 228
1320.61 -1219.22 470.085 146 183 230
1088.91 -1007.18 393.978 146 183 230
1086.85 -1007.18 399.615 146 183 230
1919.21 -1781.94 716.966 146 183 230
746.382 -747.263 425.513 150 188 232
678.505 -681.328 391.489 150 188 232
589.741 -593.979 344.358 150 188 232
674.412 -681.328 398.499 150 188 232
1377.74 -1447.82 934.224 149 187 231
1098.3 -1158.26 753.08 149 187 231
729.591 -772.172 505.84 149 187 231
559.2 -593.979 392.011 149 187 231
505.332 -538.725 358.168 149 187 231
503.47 -538.725 360.781 149 187 231
501.594 -538.725 363.385 148 186 230
740.94 -798.799 542.659 148 186 230
1539.97 -1781.94 1351.26 148 186 230
905.831 -1052.96 803.175 148 186 230
901.657 -1052.96 807.857 148 186 230
1096.89 -1286.95 993.078 148 186 230
1310.08 -1544.34 1198.5 148 186 230
1574.11 -1930.43 1564.7 148 186 230
1565.98 -1930.43 1572.83 148 186 230
1557.81 -1930.43 1580.92 149 187 231
1778.91 -2316.52 1982.19 149 187 229
803.915 -1052.96 905.173 149 187 229
837.272 -1103.1 952.628 149 187 229
919.938 -1219.22 1057.69 149 187 229
1447.87 -1930.43 1682.19 150 187 229
1688.12 -2573.91 2430.59 154 188 227
1675.51 -2573.91 2439.3 154 188 227
1318.71 -2105.92 2030.64 156 190 229
1199.16 -1930.43 1867.65 156 190 229
839.621 -1362.66 1322.71 157 191 230
294.934 -482.608 469.995 157 191 230
250.71 -413.664 404.157 157 191 230
224.553 -373.632 366.214 158 192 231
215.695 -361.956 355.892 158 192 231
213.848 -361.956 357.005 158 192 231
211.995 -361.956 358.108 159 193 232
229.206 -421.185 426.572 110 140 177
178.351 -330.931 336.092 113 143 180
162.664 -304.805 310.406 124 155 191
153.001 -289.565 295.682 139 170 206
145.992 -279.098 285.755 154 185 219
144.51 -279.098 286.508 164 195 228
138.034 -269.362 277.232 171 201 234
129.091 -254.562 262.672 175 203 235
123.651 -246.438 254.933 169 197 229
119.78 -241.304 250.246 165 194 224
114.892 -233.992 243.261 165 194 223
111.38 -229.358 239.025 165 194 223
109.06 -227.109 237.25 166 195 224
108.897 -229.358 240.166 167 196 225
110.946 -236.379 248.096 169 196 225
107.466 -231.652 243.694 171 195 224
108.369 -236.379 249.233 173 197 226
104.935 -231.652 244.795 173 196 224
113.918 -254.562 269.599 172 195 222
134.727 -304.805 323.512 173 195 222
133.049 -304.805 324.206 175 195 221
131.368 -304.805 324.891 177 197 223
97.5828 -229.358 244.981 178 199 222
85.3292 -203.203 217.49 180 201 222
84.9462 -205.001 219.858 183 204 224
84.5542 -206.832 222.262 192 211 230
84.1528 -208.695 224.703 189 208 226
82.2464 -206.832 223.126 181 200 217
79.6666 -203.203 219.627 168 187 201
77.1736 -199.7 216.243 156 175 189
77.3864 -203.203 220.441 141 156 169
79.0156 -210.592 228.87 126 139 152
67.9457 -183.851 200.162 104 117 128
66.9077 -183.851 200.511 88 97 106
614.681 -1930.43 2132.67 41 48 52
482.898 -1544.34 1708.66 41 48 51
444.411 -1447.82 1604.19 44 50 54
436.093 -1447.82 1606.47 44 51 54
427.763 -1447.82 1608.71 42 48 51
353.198 -1219.22 1356.55 47 52 55
298.96 -1052.96 1173.13 54 58 62
247.819 -890.968 993.949 52 57 60
225.333 -827.327 924.132 46 52 53
212.936 -798.799 893.381 46 52 53
208.304 -798.799 894.472 47 52 53
550.195 -2316.52 2605.93 49 53 55
383.347 -1654.65 1863.39 50 53 55
326.976 -1447.82 1632.18 54 55 58
221.575 -1007.18 1136.6 61 61 65
155.022 -723.911 817.742 69 68 73
114.882 -551.552 623.645 71 70 75
86.8384 -428.985 485.514 71 70 75
84.3216 -428.985 485.957 71 70 75
81.8025 -428.985 486.388 71 70 75
112.663 -609.61 691.775 70 69 74
18.5342 -171.594 196.415 193 213 235
16.3083 -159.76 182.956 191 214 241
15.0487 -156.521 179.328 190 213 240
13.31 -147.549 169.119 188 212 241
12.0498 -142.995 163.964 188 212 241
10.8647 -138.714 159.113 188 212 241
9.86294 -136.266 156.359 189 213 242
8.89565 -133.903 153.695 189 213 242
8.09917 -133.903 153.739 190 214 243
7.43135 -136.266 156.493 190 214 243
6.65957 -137.072 157.456 191 215 244
5.87842 -137.888 158.426 192 216 245
5.02755 -137.072 157.516 192 216 245
4.26176 -138.714 159.427 192 216 245
3.47729 -140.395 161.38 192 216 245
2.62514 -139.549 160.423 193 217 246
1.78314 -138.714 159.474 193 217 246
0.986353 -142.995 164.403 194 218 247
-232.129 -2316.52 2653.25 196 219 242
-204.895 -1930.43 2210.01 197 220 243
-216.343 -1930.43 2208.91 197 220 243
-227.785 -1930.43 2207.76 197 220 243
-642.597 -2105.92 2334.43 209 229 245
-450.095 -1447.82 1602.61 209 229 245
-488.953 -1544.34 1706.94 209 229 245
-813.864 -1781.94 1880.16 216 231 247
-594.818 -1286.95 1354.83 216 229 246
-224.698 -454.219 471.42 218 231 248
-210.618 -421.185 436.049 218 231 248
-195.135 -386.086 398.706 218 231 248
-223.244 -437.079 450.215 219 232 249
-265.675 -514.781 528.883 219 232 248
-274.513 -526.481 539.488 218 231 246
-271.142 -514.781 526.102 219 232 247
-396.544 -723.911 731.77 220 234 245
-328.476 -593.979 598.733 220 234 244
-315.399 -565.004 567.899 220 234 244
-296.633 -526.481 527.649 220 234 244
-280.255 -492.876 492.524 220 234 244
-265.835 -463.303 461.601 222 235 246
-262.964 -454.219 451.194 225 236 247
-260.196 -445.484 441.175 225 236 247
-278.548 -472.759 466.748 225 236 247
-280.963 -472.759 465.299 225 236 246
-289.274 -482.608 473.5 225 236 247
-291.723 -482.608 471.995 225 236 247
-294.165 -482.608 470.477 225 236 247
-296.599 -482.608 468.947 225 236 247
-299.025 -482.608 467.403 225 236 247
-301.443 -482.608 465.848 225 236 247
-303.852 -482.608 464.28 227 236 247
-300.004 -472.759 453.256 227 236 247
-264.555 -413.664 395.234 227 236 247
-233.274 -361.956 344.625 228 237 248
-181.248 -279.098 264.8 228 237 248
-168.414 -257.391 243.335 229 238 249
-169.673 -257.391 242.459 231 239 248
-180.982 -272.531 255.787 231 239 248
-212.272 -317.331 296.738 231 239 248
-255.867 -379.757 353.792 231 239 248
-341.729 -503.591 467.394 232 240 249
-1301.44 -1781.94 1582.29 235 240 248
-945.839 -1286.95 1137.88 236 241 248
-658.885 -890.968 784.359 236 241 247
-574.548 -772.172 676.81 236 241 247
-495.469 -661.862 577.563 237 242 248
-436.148 -579.129 503.115 237 242 248
-324.999 -428.985 370.999 237 242 248
-275.836 -361.956 311.605 237 242 248
-230.606 -300.846 257.805 236 241 247
-184.116 -238.816 203.698 236 241 247
-153.516 -197.993 168.085 236 241 247
-150.525 -193.043 163.105 237 242 248
-151.368 -193.043 162.323 237 242 247
-158.825 -201.436 168.56 238 241 246
-163.974 -206.832 172.227 237 241 247
-167.862 -210.592 174.491 237 241 246
-182 -227.109 187.236 237 241 245
-219.561 -272.531 223.549 237 241 245
-1509.37 -1781.94 1385.35 238 242 248
-1516.52 -1781.94 1377.51 238 241 248
-1523.64 -1781.94 1369.64 238 241 248
-1421.38 -1654.65 1264.46 239 242 249
-1427.91 -1654.65 1257.08 239 242 249
-1255.11 -1447.82 1093.45 239 242 249
-1344.81 -1544.34 1159.4 239 242 249
-418.913 -428.985 260.339 239 242 249
-391.273 -399.399 240.36 239 242 249
-421.589 -428.985 255.984 239 242 249
-447.786 -454.219 268.725 239 242 249
-449.173 -454.219 266.401 239 242 249
-441.883 -445.484 258.992 239 242 249
-443.219 -445.484 256.699 239 242 249
-2048.21 -1930.43 854.948 233 238 246
-1539.46 -1447.82 633.243 233 238 246
-1542.72 -1447.82 625.258 233 238 247
-1374.17 -1286.95 548.672 233 238 248
-1032.74 -965.215 406.158 233 238 248
-955.233 -890.968 369.971 233 238 248
-921.688 -857.969 351.497 233 238 248
-959.016 -890.968 360.052 232 237 248
-1955.94 -1781.94 609.675 228 235 249
-1498.11 -1362.66 458.466 228 235 249
-1500.47 -1362.66 450.697 227 234 248
-1965.18 -1781.94 579.198 227 234 248
-2326 -2105.92 672.464 227 234 248
-2329.45 -2105.92 660.403 226 234 247
-2332.84 -2105.92 648.324 225 233 247
-684.891 -609.61 148.9 223 230 252
-723.745 -643.477 153.424 222 229 252
-841.39 -747.263 173.813 221 228 251
-932.523 -827.327 187.606 219 225 251
-1452.08 -1286.95 284.312 215 218 252
-2012.59 -1781.94 383.239 212 210 253
-1383.37 -1219.22 226.457 138 129 188
-1252.66 -1103.1 198.402 114 99 161
-1096.96 -965.215 167.92 90 68 134
-1097.82 -965.215 162.234 65 39 102
-2197.29 -1930.43 313.087 50 23 85
-2638.66 -2316.52 362.038 41 14 76
-19.5705 -17.1467 2.37587 35 6 52
-19.3959 -16.9833 2.25275 34 7 46
-19.058 -16.6776 2.11349 34 8 40
-18.6393 -16.302 1.96934 33 8 32
-18.4159 -16.0981 1.84931 32 7 26
-18.1852 -15.8883 1.73101 31 7 23
-17.9598 -15.6839 1.61571 30 6 22
-17.8232 -15.5575 1.51036 30 6 19
-17.783 -15.5159 1.41419 29 7 16
-17.66 -15.4024 1.31236 27 8 13
-17.5963 -15.3412 1.21599 26 7 11
-17.4866 -15.2402 1.1174 25 6 10
-17.4921 -15.2402 1.02678 25 6 10
-17.4972 -15.2402 0.936131 25 6 10
-17.5018 -15.2402 0.845456 24 6 10
-17.506 -15.2402 0.754762 24 6 9
-17.5097 -15.2402 0.664045 23 6 9
-17.5129 -15.2402 0.573309 22 6 9
-17.5156 -15.2402 0.482562 21 6 8
-17.5179 -15.2402 0.391798 20 6 8
-17.5197 -15.2402 0.301028 20 6 8
-17.521 -15.2402 0.210245 20 6 8
-17.5218 -15.2402 0.119461 20 6 8
-17.5222 -15.2402 0.0286695 20 6 8
-17.5221 -15.2402 -0.0621185 20 6 8
-17.5216 -15.2402 -0.152909 20 6 8
-17.5205 -15.2402 -0.243696 20 6 8
-17.519 -15.2402 -0.334471 20 6 8
-17.5171 -15.2402 -0.425242 20 6 8
-17.5146 -15.2402 -0.515998 20 6 8
-17.5117 -15.2402 -0.606743 20 6 8
-17.5084 -15.2402 -0.697468 20 6 8
-17.5045 -15.2402 -0.788179 20 6 8
-17.5002 -15.2402 -0.878869 19 5 7
-17.4954 -15.2402 -0.96953 18 5 7
-17.4901 -15.2402 -1.06017 17 4 6
-17.4844 -15.2402 -1.15078 17 4 6
-17.4782 -15.2402 -1.24136 16 4 6
-17.4715 -15.2402 -1.3319 16 4 6
-17.4644 -15.2402 -1.42241 16 4 6
-17.4568 -15.2402 -1.51288 16 5 6
-17.4487 -15.2402 -1.60331 15 5 6
-17.4402 -15.2402 -1.6937 15 5 6
-17.4312 -15.2402 -1.78404 14 4 5
-17.4217 -15.2402 -1.87434 14 4 5
-17.4118 -15.2402 -1.96458 14 4 5
-17.4013 -15.2402 -2.05477 14 4 5
-17.3905 -15.2402 -2.14491 14 4 5
-17.3791 -15.2402 -2.23499 14 4 5
-17.3673 -15.2402 -2.32501 14 4 5
-17.355 -15.2402 -2.41496 14 4 5
-17.3423 -15.2402 -2.50486 14 4 5
-17.3291 -15.2402 -2.59468 14 4 5
-17.3154 -15.2402 -2.68443 14 4 5
-17.3012 -15.2402 -2.77411 14 4 5
-17.2866 -15.2402 -2.86372 14 4 5
-17.2716 -15.2402 -2.95325 14 4 5
17.601 -15.1492 0 23 4 11
17.6007 -15.1492 0.0911981 23 4 11
17.6 -15.1492 0.182394 23 4 11
17.5988 -15.1492 0.273584 24 4 13
17.5972 -15.1492 0.364768 25 5 16
17.5951 -15.1492 0.455941 25 5 17
17.5925 -15.1492 0.547103 27 7 19
17.5894 -15.1492 0.638249 27 7 21
17.5858 -15.1492 0.729379 27 5 27
17.5818 -15.1492 0.820489 29 4 38
17.5773 -15.1492 0.911577 32 4 45
17.5724 -15.1492 1.00264 34 3 54
17.567 -15.1492 1.09368 35 2 61
17.5611 -15.1492 1.18468 35 1 66
979.704 -852.846 148.33 145 182 229
978.922 -852.846 153.405 146 182 230
978.114 -852.846 158.475 146 183 229
942.377 -822.388 157.7 146 184 228
941.548 -822.388 162.581 145 183 227
975.533 -852.846 173.659 145 183 227
580.499 -511.708 128.361 144 181 228
606.795 -535.508 137.478 144 181 228
1303.06 -1151.34 302.333 144 181 228
1301.48 -1151.34 309.08 144 181 228
1299.86 -1151.34 315.82 144 181 228
1683.36 -1535.12 589.402 146 183 230
1200.2 -1096.52 427.226 146 183 230
1093.8 -1001.17 395.749 147 184 231
1321.58 -1211.94 485.918 147 184 231
2088.48 -1918.9 780.203 147 184 231
2779.22 -2558.54 1054.68 147 184 231
749.735 -742.802 427.425 150 188 232
724.151 -719.589 417.826 150 188 232
745.266 -742.802 435.171 150 188 232
1851.7 -1918.9 1241.65 150 188 232
1107.14 -1151.34 750.737 150 188 232
735.492 -767.562 504.309 149 187 231
666.244 -697.783 461.921 149 187 231
561.713 -590.432 393.772 149 187 231
507.603 -535.508 359.777 149 187 231
505.732 -535.508 362.402 149 187 231
481.454 -511.708 348.795 149 187 231
469.213 -500.584 343.648 149 187 231
457.481 -489.933 338.711 149 187 231
455.72 -489.933 341.077 148 186 230
484.898 -523.338 366.85 148 186 230
1517.97 -1644.78 1160.84 149 187 231
1411.14 -1535.12 1090.78 149 187 231
1240.12 -1354.52 968.887 149 187 231
1399.76 -1535.12 1105.34 149 187 231
1010.03 -1151.34 877.042 148 186 230
693.432 -794.029 608.458 148 186 230
714.922 -822.388 633.901 148 186 230
797.023 -921.074 714.109 148 186 230
901.491 -1046.68 816.169 148 186 230
939.977 -1096.52 859.916 148 186 230
1309.71 -1535.12 1210.69 148 186 230
1897.42 -2302.69 1886.07 149 187 231
1573.02 -1918.9 1579.9 149 187 231
1075.17 -1354.52 1149.2 149 187 231
1069.2 -1354.52 1154.75 149 187 231
1807.44 -2302.69 1972.47 150 188 231
1797.19 -2302.69 1981.81 150 188 230
661.815 -852.846 737.443 150 187 230
657.985 -852.846 740.863 151 187 230
802.805 -1046.68 913.412 151 187 229
1350.57 -1771.3 1552.79 151 187 228
1397.73 -2093.35 1990.38 155 189 228
1173.95 -1771.3 1690.28 155 189 228
343.972 -561.631 554.5 157 191 230
341.094 -561.631 556.275 158 192 230
288.886 -479.726 476.655 158 192 230
259.392 -434.469 433.037 162 196 233
257.145 -434.469 434.375 164 198 236
199.764 -359.795 367.202 108 139 174
173.465 -315.436 322.834 121 152 187
162.866 -299.05 306.911 140 171 206
155.226 -287.836 296.211 156 187 222
148.134 -277.432 286.276 164 195 230
144.903 -274.129 283.622 168 199 233
141.744 -270.904 281.024 166 197 230
138.654 -267.754 278.478 163 194 227
129.671 -253.042 263.852 166 194 226
124.207 -244.967 256.079 165 193 225
120.319 -239.863 251.37 165 194 224
114.254 -230.269 241.911 166 195 224
111.88 -227.989 240.099 165 194 223
108.486 -223.562 236.002 167 195 224
526.095 -1096.52 1160.27 168 196 225
574.821 -1211.94 1285.4 169 196 225
514.043 -1096.52 1165.66 171 194 223
138.693 -302.985 323.546 174 196 223
163.258 -365.506 392.022 179 200 225
156.264 -354.259 380.775 188 207 228
126.947 -291.479 313.958 195 214 234
98.0212 -227.989 246.082 197 217 235
85.7125 -201.99 218.467 196 216 230
84.5794 -201.99 218.908 191 211 225
84.1825 -203.777 221.285 169 188 201
83.7762 -205.597 223.697 142 160 173
81.8848 -203.777 222.145 117 135 147
78.6448 -198.507 216.81 84 100 109
77.5204 -198.507 217.215 68 84 93
519.716 -1644.78 1838.93 46 52 55
446.408 -1439.18 1611.4 47 53 56
438.052 -1439.18 1613.69 47 53 56
429.685 -1439.18 1615.94 48 53 57
518.531 -1771.3 1991.56 50 55 58
539.097 -2302.69 2620.47 56 58 60
437.926 -1918.9 2186.02 60 60 63
365.652 -1644.78 1875.65 65 65 68
216.652 -1001.17 1142.84 74 73 77
89.7543 -426.423 487.237 77 76 80
70.3036 -343.684 393.068 77 75 80
70.3665 -354.259 405.532 76 75 80
82.17 -426.423 488.573 76 74 80
17.3335 -158.806 183.691 189 206 228
15.9418 -154.543 178.844 197 219 246
14.3411 -147.608 170.896 192 214 241
13.3698 -146.668 169.879 188 213 240
12.1039 -142.141 164.701 187 213 240
10.7844 -136.254 157.937 188 214 241
9.79206 -133.877 155.235 188 214 241
8.88427 -132.338 153.499 189 215 242
8.08881 -132.338 153.543 189 215 242
7.50891 -136.254 158.126 190 216 243
6.7696 -137.885 160.057 191 217 244
5.94019 -137.885 160.09 191 217 244
5.1414 -138.716 161.083 192 217 245
4.35922 -140.408 163.073 192 217 245
3.51421 -140.408 163.093 192 217 245
2.66909 -140.408 163.109 192 218 245
1.80195 -138.716 161.155 192 218 245
0.990784 -142.141 165.142 193 218 246
0.139406 -146.668 170.404 193 218 246
-0.74353 -146.668 170.403 193 219 246
-1.65813 -149.525 173.716 194 219 247
-2.73585 -159.909 185.768 194 219 247
-3.85915 -166.861 193.827 194 218 247
-246.978 -2302.69 2663.92 197 220 243
-260.778 -2302.69 2662.61 197 220 243
-355.016 -1151.34 1289.7 209 229 245
-328.813 -1046.68 1170.77 209 229 245
-368.362 -1151.34 1285.95 209 229 245
-468.775 -1439.18 1605.04 209 229 245
-693.943 -2093.35 2331.03 209 229 245
-223.251 -451.507 474.701 219 232 249
-185.663 -371.401 389.523 219 232 249
-168.639 -333.723 349.137 219 232 249
-170.445 -333.723 348.259 219 232 249
-198.085 -383.781 399.476 219 232 249
-250.19 -479.726 498.056 219 232 248
-269.618 -511.708 529.87 220 233 248
-250.127 -469.936 485.326 220 233 248
-334.575 -622.347 641.004 220 233 246
-289.691 -523.338 534.587 221 235 245
-268.086 -479.726 488.656 220 234 244
-295.215 -523.338 531.557 220 234 244
-285.011 -500.584 506.976 220 234 244
-275.649 -479.726 484.43 222 236 246
-267.029 -460.537 463.675 223 235 246
-264.145 -451.507 453.221 224 235 246
-261.365 -442.824 443.157 225 236 246
-279.8 -469.936 468.846 225 237 245
-294.235 -489.933 487.278 225 237 245
-296.756 -489.933 485.747 225 237 245
-293.034 -479.726 474.116 225 237 245
-295.487 -479.726 472.591 224 236 244
-297.932 -479.726 471.054 226 236 245
-282.7 -451.507 441.886 227 237 246
-274.231 -434.469 423.796 227 237 247
-271.304 -426.423 414.547 228 237 247
-263.683 -411.194 398.381 228 237 248
-232.525 -359.795 347.383 228 237 248
-202.657 -311.174 299.394 229 238 249
-166.057 -253.042 242.606 229 238 249
-163.714 -247.601 236.543 230 239 248
-164.937 -247.601 235.692 231 239 248
-173.624 -258.729 245.388 231 239 248
-194.569 -287.836 271.99 231 239 248
-227.218 -333.723 314.178 232 240 249
-267.63 -390.286 366.047 232 240 249
-1068.85 -1439.18 1285.87 237 242 248
-748.173 -1001.17 890.651 237 242 248
-597.031 -794.029 703.294 237 242 248
-458.404 -605.97 534.356 237 242 248
-398.28 -523.338 459.432 237 242 248
-326.46 -426.423 372.666 237 242 248
-260.777 -338.63 294.593 237 242 248
-214.896 -277.432 240.243 237 242 248
-153.329 -196.811 169.637 237 242 248
-135.655 -173.134 148.528 237 242 248
-136.423 -173.134 147.824 238 243 248
-136.163 -171.842 146.017 239 243 247
-136.918 -171.842 145.309 239 243 247
-147.581 -184.215 155.009 238 242 246
-165.605 -205.597 172.145 238 242 246
-182.818 -225.753 188.078 238 242 246
-1516.15 -1771.3 1391.58 239 243 247
-1650.28 -1918.9 1499.01 239 243 247
-1808.76 -2093.35 1625.94 240 244 248
-1817.16 -2093.35 1616.54 240 243 248
-1440.85 -1644.78 1255.28 241 243 249
-393.031 -397.015 241.44 239 242 249
-394.277 -397.015 239.4 239 242 249
-2057.41 -1918.9 858.79 233 238 246
-1767.29 -1644.78 726.958 234 239 247
-1549.65 -1439.18 628.068 234 239 249
-1552.89 -1439.18 620.03 234 239 249
-1082.49 -1001.17 425.722 233 238 248
-959.525 -885.648 371.633 233 238 248
-925.829 -852.846 353.077 233 238 248
-2537.09 -2302.69 848.9 229 236 248
-2339.92 -2093.35 663.371 228 235 249
-2343.32 -2093.35 651.237 227 234 248
-726.996 -639.635 154.114 221 229 251
-727.785 -639.635 150.345 221 227 252
-846.063 -742.802 170.212 219 224 252
-937.677 -822.388 183.593 217 221 250
-879.31 -767.562 148.625 172 165 219
-880.068 -767.562 144.067 154 139 202
-880.803 -767.562 139.505 132 104 178
-881.514 -767.562 134.94 106 72 150
-1017.92 -885.648 150.428 78 44 122
-1103.58 -959.452 157.247 58 25 98
-1656.57 -1439.18 227.29 48 17 81
-2210.3 -1918.9 291.605 42 11 68
-19.6584 -17.0443 2.38654 36 6 60
-19.3553 -16.7712 2.24804 34 5 51
-19.1023 -16.5423 2.11841 32 5 43
-18.7362 -16.2161 1.97958 32 5 37
-18.3457 -15.8696 1.84226 31 6 32
-18.1424 -15.6859 1.72694 31 6 27
-18.0405 -15.5903 1.62297 30 7 21
-17.8792 -15.4439 1.51511 30 7 20
-17.7322 -15.3104 1.41016 29 6 19
-17.5526 -15.1492 1.30438 29 6 19
-17.5591 -15.1492 1.21341 28 6 17
-17.5651 -15.1492 1.12242 26 7 13
-17.5707 -15.1492 1.03139 26 7 11
-17.5758 -15.1492 0.940337 25 6 10
-17.5805 -15.1492 0.849255 25 6 10
-17.5846 -15.1492 0.758154 25 6 10
-17.5883 -15.1492 0.667028 24 6 9
-17.5915 -15.1492 0.575885 22 6 9
-17.5943 -15.1492 0.48473 22 6 9
-17.5966 -15.1492 0.393558 21 6 8
-17.5984 -15.1492 0.30238 20 6 8
-17.5997 -15.1492 0.21119 20 6 8
-17.6006 -15.1492 0.119998 20 6 8
-17.6009 -15.1492 0.0287983 20 6 8
-17.6009 -15.1492 -0.0623977 20 6 8
-17.6003 -15.1492 -0.153596 20 6 8
-17.5993 -15.1492 -0.244791 20 6 8
-17.5978 -15.1492 -0.335974 20 6 8
-17.5958 -15.1492 -0.427153 20 6 8
-17.5933 -15.1492 -0.518316 20 6 8
-17.5904 -15.1492 -0.609469 19 5 7
-17.587 -15.1492 -0.700602 19 5 7
-17.5832 -15.1492 -0.791721 18 5 7
-17.5788 -15.1492 -0.882818 18 5 7
-17.574 -15.1492 -0.973887 17 5 7
-17.5687 -15.1492 -1.06493 17 5 7
-17.563 -15.1492 -1.15595 17 5 7
-17.5567 -15.1492 -1.24694 17 5 7
-17.55 -15.1492 -1.33789 16 4 6
-17.5429 -15.1492 -1.4288 16 4 6
-17.5352 -15.1492 -1.51968 16 4 6
-17.5271 -15.1492 -1.61052 16 4 6
-17.5186 -15.1492 -1.70131 16 4 6
-17.5095 -15.1492 -1.79206 16 4 6
-17.5 -15.1492 -1.88276 15 5 6
-17.49 -15.1492 -1.97341 15 5 6
-17.4795 -15.1492 -2.06401 14 4 5
-17.4686 -15.1492 -2.15455 14 4 5
-17.4572 -15.1492 -2.24503 14 4 5
-17.4453 -15.1492 -2.33545 14 4 5
-17.433 -15.1492 -2.42581 14 4 5
-17.4202 -15.1492 -2.51611 14 4 5
-17.4069 -15.1492 -2.60634 14 4 5
-17.3932 -15.1492 -2.6965 14 4 5
-17.379 -15.1492 -2.78658 14 4 5
-17.3643 -15.1492 -2.87659 14 4 5
-17.3492 -15.1492 -2.96652 14 4 5
17.6792 -15.0578 0 23 6 12
17.679 -15.0578 0.0916036 23 5 12
17.6783 -15.0578 0.183205 24 5 12
17.6771 -15.0578 0.274801 25 6 13
17.6754 -15.0578 0.36639 26 7 14
17.6733 -15.0578 0.457969 27 7 18
17.6707 -15.0578 0.549535 27 6 26
17.6676 -15.0578 0.641087 26 4 32
17.664 -15.0578 0.732622 24 1 34
17.66 -15.0578 0.824137 27 2 40
17.6555 -15.0578 0.91563 34 5 52
17.6505 -15.0578 1.0071 39 7 60
17.6451 -15.0578 1.09854 38 8 63
2676.82 -2288.79 236.399 103 86 157
985.551 -847.701 138.784 149 182 231
916.901 -789.239 133.966 150 182 231
916.194 -789.239 138.715 149 182 231
983.275 -847.701 154.087 147 182 230
982.464 -847.701 159.179 147 182 230
1019.38 -880.305 170.586 147 182 230
1151.33 -995.127 198.804 146 183 229
979.871 -847.701 174.431 146 184 229
1149.21 -995.127 210.724 146 183 230
624.005 -544.951 141.377 146 183 230
1308.85 -1144.4 303.677 146 183 230
1743.02 -1525.86 413.94 145 182 229
1693.89 -1525.86 583.254 147 184 231
1334.88 -1204.63 467.386 147 184 231
973.706 -880.305 346.601 147 184 231
1010.77 -915.517 365.708 147 184 231
1327.45 -1204.63 488.079 147 184 231
2097.77 -1907.33 783.672 147 184 231
2791.57 -2543.1 1059.37 147 184 231
2786.05 -2543.1 1073.82 147 184 231
2763.19 -2543.1 1131.33 147 184 233
2757.29 -2543.1 1145.63 147 184 233
753.069 -738.32 429.325 149 187 231
750.834 -738.32 433.222 150 188 232
748.58 -738.32 437.106 150 188 232
1487.94 -1525.86 997.737 150 188 232
741.377 -762.931 502.717 150 188 232
671.602 -693.573 460.501 150 188 232
630.966 -653.941 437.462 150 188 232
579.058 -602.314 405.931 149 187 231
509.86 -532.277 361.377 149 187 231
485.404 -508.621 347.835 149 187 231
463.016 -486.977 335.437 149 187 231
442.445 -467.1 324.043 149 187 231
431.944 -457.758 319.804 149 187 231
439.063 -467.1 328.61 149 187 231
446.466 -476.832 337.774 149 187 231
454.172 -486.977 347.319 149 187 231
494.447 -532.277 382.195 149 187 231
516.482 -558.242 403.52 149 187 231
566.153 -635.776 486.485 148 186 230
563.625 -635.776 489.412 148 186 230
631.216 -715.248 553.867 149 187 231
670.227 -762.931 594.272 149 187 231
741.266 -847.701 664.152 148 186 230
905.5 -1040.36 819.798 148 186 230
944.156 -1089.9 863.74 148 186 230
1644.42 -1907.33 1520.09 148 186 230
441.939 -544.951 462.665 150 188 232
485.803 -602.314 513.891 150 188 232
483.134 -602.314 516.401 150 188 232
493.437 -618.592 532.922 150 188 232
907.737 -1144.4 990.622 150 188 230
1388.6 -1760.61 1531.25 150 188 230
1794.85 -2288.79 1999.95 150 188 230
811.118 -1040.36 913.283 151 187 230
1753.71 -2543.1 2416.54 154 190 231
580.387 -847.701 808.532 154 190 230
576.19 -847.701 811.528 156 190 229
1403.94 -2080.72 1999.23 155 189 228
1028.67 -1634.85 1620.54 157 191 229
386.046 -618.592 615.186 158 192 229
345.502 -558.242 556.966 159 193 230
342.611 -558.242 558.748 156 190 227
290.17 -476.832 478.774 152 186 223
260.545 -431.848 434.963 140 174 211
232.022 -387.931 391.937 125 159 196
215.385 -363.3 368.173 113 147 184
194.912 -331.709 337.172 103 136 173
180.111 -309.296 315.328 101 133 171
173.778 -301.157 307.934 113 144 181
169.944 -297.246 304.82 128 159 194
168.362 -297.246 305.696 146 177 212
166.776 -297.246 306.564 158 189 224
163.067 -293.435 303.483 165 196 230
157.455 -286.099 296.716 168 199 233
153.991 -282.567 293.854 169 200 234
147.021 -272.475 284.125 166 197 231
143.835 -269.27 281.532 166 196 229
142.374 -269.27 282.273 166 195 227
142.587 -272.475 286.376 167 195 228
136.236 -263.08 277.211 169 196 228
126.101 -246.107 259.983 169 195 228
120.854 -238.416 252.488 169 195 227
115.921 -231.191 245.441 169 196 226
113.501 -228.879 243.578 168 195 225
113.371 -231.191 246.629 170 197 227
127.511 -289.721 315.354 143 162 181
98.4571 -226.613 247.176 123 143 160
86.0937 -200.771 219.438 90 110 124
84.9555 -200.771 219.882 67 87 101
84.5568 -202.548 222.269 41 60 73
83.404 -202.548 222.704 29 46 58
82.2489 -202.548 223.133 23 39 51
80.3803 -200.771 221.595 22 36 45
492.267 -2080.72 2392.84 59 58 59
406.037 -1760.61 2026.84 63 61 62
367.278 -1634.85 1883.99 66 64 65
312.822 -1430.5 1650.14 75 72 75
72.6609 -341.611 394.444 79 76 80
59.1411 -286.099 330.658 78 75 80
67.5612 -336.587 389.365 76 73 79
16.1829 -146.717 171.497 177 192 214
15.2941 -146.717 171.579 201 221 249
14.3132 -145.783 170.562 193 214 242
13.0956 -142.161 166.395 187 214 240
12.0831 -140.417 164.418 187 215 240
10.7686 -134.635 157.706 187 215 240
9.72254 -131.54 154.133 187 215 240
8.82236 -130.045 152.429 188 216 241
8.12477 -131.54 154.225 188 216 241
7.63262 -137.053 160.732 189 217 242
6.84066 -137.879 161.738 190 218 243
6.07575 -139.561 163.744 190 218 243
5.22724 -139.561 163.773 191 219 244
4.3786 -139.561 163.798 191 219 244
3.55149 -140.417 164.823 191 219 244
2.69741 -140.417 164.839 191 219 244
1.84327 -140.417 164.851 191 219 244
1.01397 -143.949 169.006 191 219 244
0.140026 -145.783 171.162 191 219 244
-0.746836 -145.783 171.16 192 220 245
-1.62334 -144.86 170.071 192 220 245
-2.56958 -148.623 174.477 192 220 245
-3.54259 -151.576 177.928 192 220 245
-612.024 -2543.1 2922.43 206 225 246
-302.752 -953.663 1077.98 209 229 245
-352.381 -1089.9 1230.16 209 229 245
-443.162 -1346.35 1517.34 209 229 245
-511.154 -1525.86 1717.03 209 229 245
-709.151 -2080.72 2337.76 211 231 247
-1114.73 -2543.1 2769.93 216 231 247
-377.009 -762.931 812.544 219 232 249
-200.639 -401.542 426.621 219 232 249
-167.569 -331.709 351.562 219 232 249
-166.969 -326.97 345.68 219 232 249
-171.203 -331.709 349.807 219 232 249
-186.53 -357.624 376.174 220 233 250
-223.38 -423.85 444.685 220 233 248
-248.71 -467.1 488.779 220 233 248
-232.277 -431.848 450.692 220 234 248
-248.686 -457.758 476.452 221 235 247
-380.532 -693.573 719.934 222 236 248
-264.177 -476.832 493.593 222 236 247
-266.731 -476.832 492.217 222 236 246
-269.278 -476.832 490.829 222 236 246
-271.817 -476.832 489.427 222 236 246
-274.35 -476.832 488.012 222 236 246
-276.875 -476.832 486.584 222 236 246
-262.957 -448.783 456.605 224 235 246
-255.308 -431.848 438.058 224 235 246
-257.574 -431.848 436.729 224 236 245
-264.83 -440.152 443.761 225 237 245
-301.968 -497.564 500.085 225 237 245
-298.076 -486.977 487.907 225 237 245
-294.337 -476.832 476.224 225 237 245
-279.342 -448.783 446.769 226 238 246
-256.505 -408.713 405.555 227 238 246
-233.577 -369.16 365.103 228 238 246
-228.107 -357.624 352.516 228 238 246
-219.636 -341.611 335.598 229 237 246
-214.955 -331.709 324.761 229 237 246
-210.532 -322.365 314.527 230 238 247
-203.558 -309.296 300.725 230 238 247
-168.649 -254.31 246.392 231 239 248
-164.442 -246.107 237.595 233 239 247
-165.671 -246.107 236.74 233 239 247
-168.709 -248.782 238.442 232 239 248
-177.667 -260.09 248.363 232 239 248
-201.894 -293.435 279.162 232 240 249
-236.722 -341.611 323.773 232 240 249
-1717.76 -2288.79 2066.53 237 242 248
-909.71 -1204.63 1082.95 237 242 248
-579.696 -762.931 682.874 238 243 249
-416.59 -544.951 485.615 238 243 249
-366.713 -476.832 423.019 238 243 249
-295.12 -381.465 336.89 239 244 250
-237.489 -305.172 268.285 238 243 249
-215.852 -275.758 241.311 238 243 249
-144.154 -183.103 159.486 238 243 249
-127.622 -161.183 139.733 239 244 250
-123.141 -154.648 133.432 239 244 249
-123.831 -154.648 132.792 240 244 248
-124.517 -154.648 132.149 240 244 248
-138.281 -170.805 145.241 239 243 247
-150.244 -184.58 156.177 239 243 247
-2229.46 -2288.79 1500.26 242 243 248
-2033.82 -2080.72 1353.35 242 243 248
-2040.81 -2080.72 1342.79 242 243 248
-2062.07 -1907.33 873.304 234 239 247
-1653.25 -1525.86 690.087 234 239 248
-1656.8 -1525.86 681.511 234 239 249
-1556.54 -1430.5 630.86 234 239 249
-1468.04 -1346.35 586.152 234 239 249
-1042 -953.663 409.797 234 239 249
-963.791 -880.305 373.286 234 239 249
-929.945 -847.701 354.647 234 239 249
-967.608 -880.305 363.278 234 239 249
-1695.95 -1525.86 577.245 233 238 248
-1698.92 -1525.86 568.45 232 237 247
-2320.69 -2080.72 763.144 231 237 248
-1723.57 -1525.86 488.635 228 235 249
-1726.08 -1525.86 479.698 228 235 249
-848.008 -738.32 179.766 222 229 252
-731.021 -635.776 151.013 221 228 253
-752.702 -653.941 151.43 221 227 253
-661.826 -572.198 115.396 195 195 231
-828.019 -715.248 139.956 180 179 225
-855.466 -738.32 140.04 162 156 212
-856.18 -738.32 135.606 138 124 187
-830.094 -715.248 127.068 113 90 159
-830.741 -715.248 122.766 86 56 127
-1023.22 -880.305 145.796 63 31 97
-1401.21 -1204.63 192.253 53 21 87
-19.3287 -16.5734 2.24496 35 7 46
-19.1598 -16.4189 2.12478 34 6 43
-18.8195 -16.1183 1.98838 33 6 39
-18.4273 -15.7739 1.85045 32 6 35
-18.1489 -15.5278 1.72756 31 6 31
-17.9989 -15.392 1.61922 31 6 31
-17.9107 -15.3096 1.51777 30 6 27
-17.6236 -15.0578 1.40152 29 7 21
-17.6306 -15.0578 1.31018 28 8 17
-17.6372 -15.0578 1.21881 27 8 15
-17.6432 -15.0578 1.12741 27 8 15
-17.6489 -15.0578 1.03598 27 8 15
-17.654 -15.0578 0.944518 26 8 13
-17.6586 -15.0578 0.853031 25 7 11
-17.6628 -15.0578 0.761525 24 7 10
-17.6665 -15.0578 0.669994 24 7 10
-17.6698 -15.0578 0.578445 23 6 9
-17.6725 -15.0578 0.486886 23 6 9
-17.6748 -15.0578 0.395308 23 6 9
-17.6766 -15.0578 0.303725 23 6 9
-17.678 -15.0578 0.212129 22 6 9
-17.6788 -15.0578 0.120531 21 6 8
-17.6792 -15.0578 0.0289264 20 6 8
-17.6791 -15.0578 -0.0626751 20 6 8
-17.6786 -15.0578 -0.154279 20 6 8
-17.6775 -15.0578 -0.245879 20 6 8
-17.676 -15.0578 -0.337468 20 6 8
-17.674 -15.0578 -0.429052 20 6 8
-17.6716 -15.0578 -0.520621 19 5 7
-17.6686 -15.0578 -0.612179 18 5 7
-17.6652 -15.0578 -0.703717 17 5 7
-17.6613 -15.0578 -0.795241 17 5 7
-17.657 -15.0578 -0.886743 17 5 7
-17.6521 -15.0578 -0.978217 17 5 7
-17.6468 -15.0578 -1.06967 17 5 7
-17.6411 -15.0578 -1.16109 17 5 7
-17.6348 -15.0578 -1.25248 17 5 7
-17.6281 -15.0578 -1.34383 17 5 7
-17.6209 -15.0578 -1.43516 17 5 7
-17.6132 -15.0578 -1.52644 17 5 7
-17.6051 -15.0578 -1.61768 16 4 6
-17.5964 -15.0578 -1.70888 16 4 6
-17.5874 -15.0578 -1.80003 16 4 6
-17.5778 -15.0578 -1.89113 16 4 6
-17.5678 -15.0578 -1.98218 16 4 6
-17.5573 -15.0578 -2.07318 16 5 6
-17.5463 -15.0578 -2.16413 15 5 6
-17.5348 -15.0578 -2.25501 15 5 6
-17.5229 -15.0578 -2.34584 14 4 5
-17.5105 -15.0578 -2.4366 14 4 5
-17.4977 -15.0578 -2.5273 14 4 5
-17.4843 -15.0578 -2.61792 14 4 5
-17.4705 -15.0578 -2.70849 14 4 5
-17.4563 -15.0578 -2.79897 14 4 5
-17.4415 -15.0578 -2.88938 14 4 5
-17.4263 -15.0578 -2.97971 14 4 5
17.757 -14.966 0 23 6 12
17.7568 -14.966 0.0920066 24 7 13
17.7561 -14.966 0.184011 24 6 14
17.7549 -14.966 0.27601 25 5 20
17.7532 -14.966 0.368002 27 4 29
17.7511 -14.966 0.459984 26 3 30
17.7484 -14.966 0.551953 25 2 29
17.7453 -14.966 0.643908 26 3 33
17.7418 -14.966 0.735845 28 5 39
17.7377 -14.966 0.827763 29 5 42
17.7332 -14.966 0.919658 29 6 45
18.1216 -15.2982 1.03398 31 8 56
2689.8 -2274.84 223.505 82 70 142
1493.67 -1263.8 131.91 107 101 173
1492.96 -1263.8 139.648 129 128 199
890.899 -758.279 125.455 153 184 234
834.597 -710.887 121.94 153 185 234
860.856 -733.819 130.336 152 185 234
919.491 -784.427 144.091 150 185 233
1024.74 -874.938 166.029 148 185 232
1663.78 -1421.77 278.421 148 185 232
1477.61 -1263.8 255.145 147 184 231
1265.38 -1083.26 225.255 147 184 231
1397.27 -1197.28 256.21 147 184 231
1643.27 -1421.77 381.266 147 184 231
1641.27 -1421.77 389.776 147 184 231
2320.02 -2068.03 798.845 147 184 231
1340.75 -1197.28 469.443 147 184 231
977.99 -874.938 348.126 147 184 231
1015.22 -909.935 367.317 147 184 231
1333.29 -1197.28 490.226 147 184 231
2298.54 -2068.03 858.676 147 184 231
2769.43 -2527.6 1150.67 147 184 233
732.745 -710.887 417.739 150 186 231
730.571 -710.887 421.53 150 186 231
751.873 -733.819 439.029 150 186 231
1499.66 -1516.56 994.37 151 189 233
934.056 -947.849 626.329 151 189 233
676.944 -689.345 459.026 151 189 233
674.557 -689.345 462.527 150 188 232
652.382 -669.07 452.31 150 188 232
631.457 -649.954 442.665 149 187 231
579.485 -598.642 410.725 149 187 231
498.62 -517.009 357.306 149 187 231
465.053 -484.008 336.913 150 188 232
435.503 -454.968 318.959 149 187 231
433.845 -454.968 321.212 149 187 231
432.175 -454.968 323.455 149 187 231
439.279 -464.253 332.337 149 187 231
446.666 -473.925 341.579 149 187 231
454.356 -484.008 351.206 149 187 231
494.626 -529.032 386.444 149 187 231
568.644 -631.899 488.625 149 187 231
566.104 -631.899 491.565 149 187 231
579.651 -649.954 508.62 149 187 231
651.461 -733.819 577.632 149 187 231
744.527 -842.533 667.074 149 187 231
909.484 -1034.02 823.405 149 187 231
1048.13 -1197.28 958.86 149 187 231
1651.65 -1895.7 1526.77 149 187 231
416.533 -505.52 431.568 150 188 232
414.291 -505.52 433.721 150 188 232
441.47 -541.628 466.994 150 188 232
439.044 -541.628 469.275 150 188 232
436.607 -541.628 471.544 151 188 232
492.828 -614.821 537.827 151 188 231
1773.97 -2527.6 2418.01 152 188 229
689.252 -989.06 949.763 152 188 229
449.697 -649.954 626.469 152 188 229
434.044 -631.899 611.324 154 188 228
1083.29 -1624.88 1594.77 155 189 228
729.134 -1137.42 1135.61 163 197 236
390.941 -614.821 615.875 161 195 233
326.058 -517.009 519.592 154 188 225
296.414 -473.925 477.835 143 177 214
276.644 -446.047 451.166 124 158 195
254.354 -413.607 419.678 111 145 182
231.161 -379.14 385.907 106 140 177
218.246 -361.085 368.667 111 145 182
197.521 -329.687 337.637 125 159 196
182.542 -307.411 315.773 143 175 213
169.453 -287.954 296.67 163 195 233
167.914 -287.954 297.544 177 209 247
164.29 -284.355 294.68 174 205 240
162.761 -284.355 295.527 170 201 236
161.228 -284.355 296.366 168 199 233
159.69 -284.355 297.198 167 198 231
156.196 -280.844 294.342 167 198 231
152.782 -277.419 291.548 165 196 229
147.668 -270.814 285.375 164 195 228
146.187 -270.814 286.137 164 194 227
150.062 -280.844 297.516 165 193 225
152.278 -287.954 305.841 165 193 225
150.692 -287.954 306.626 167 193 226
132.348 -255.6 272.863 167 193 226
123.968 -242.004 258.995 167 193 226
118.832 -234.519 251.604 171 197 227
115.152 -229.782 247.121 175 201 229
117.429 -236.962 255.455 180 205 232
84.2552 -194.431 214.753 33 44 50
83.1413 -194.431 215.186 33 44 49
84.9288 -201.313 223.246 36 45 49
83.7709 -201.313 223.684 42 48 51
82.6108 -201.313 224.115 43 49 52
557.567 -2274.84 2640.85 57 57 57
418.366 -1749.88 2033.62 61 60 61
353.447 -1516.56 1764.32 65 63 64
322.782 -1421.77 1655.75 67 65 66
251.359 -1137.42 1325.92 69 66 69
50.4093 -234.519 273.65 72 68 72
49.5011 -236.962 276.761 73 70 74
56.9676 -280.844 328.312 72 69 74
16.8229 -143.072 168.917 116 126 140
14.7421 -132.258 156.228 157 171 192
14.6121 -138.71 163.927 195 214 242
13.8469 -139.561 165.007 198 218 245
12.9918 -139.561 165.076 189 215 240
11.9892 -137.869 163.14 187 215 240
10.6284 -131.494 155.653 188 216 241
9.65435 -129.252 153.052 188 216 241
8.86118 -129.252 153.1 188 216 241
8.06779 -129.252 153.144 189 217 242
7.57548 -134.606 159.528 190 218 243
6.82962 -136.218 161.476 190 218 243
6.10248 -138.71 164.464 190 218 243
5.25024 -138.71 164.493 191 219 244
4.39786 -138.71 164.518 191 219 244
3.56712 -139.561 165.548 191 219 244
2.70928 -139.561 165.565 191 219 244
1.85138 -139.561 165.576 191 219 244
1.01206 -142.177 168.689 191 219 244
0.139752 -143.977 170.827 191 219 244
-0.745374 -143.977 170.825 192 220 245
-1.6001 -141.294 167.636 192 220 245
-2.51554 -143.977 170.808 192 220 245
-3.40054 -143.977 170.793 192 220 245
-4.7021 -157.975 187.376 192 220 245
-614.717 -2527.6 2935.28 206 225 245
-437.209 -1338.14 1526.3 209 229 245
-472.931 -1421.77 1619.27 209 229 245
-641.754 -1895.7 2155.72 210 230 246
-1119.64 -2527.6 2782.12 216 231 247
-334.118 -669.07 720.105 219 232 249
-166.474 -329.687 353.977 219 232 249
-163.565 -320.4 343.163 220 233 250
-165.341 -320.4 342.31 220 233 250
-167.113 -320.4 341.449 220 233 250
-178.962 -339.528 360.912 220 233 250
-220.283 -413.607 438.521 222 235 250
-226.674 -421.266 445.473 221 234 249
-228.979 -421.266 444.292 222 235 249
-215.328 -392.213 412.541 222 236 248
-252.256 -454.968 477.247 222 236 248
-259.924 -464.253 485.647 222 236 247
-262.437 -464.253 484.293 222 236 246
-264.943 -464.253 482.927 222 236 246
-267.442 -464.253 481.548 222 236 246
-275.557 -473.925 490.159 222 236 246
-272.417 -464.253 478.751 223 236 246
-254.148 -429.215 441.308 225 236 247
-247.106 -413.607 423.985 224 235 246
-228.525 -379.14 387.474 224 236 245
-216.121 -355.443 362.142 225 237 245
-296.844 -484.008 491.598 226 238 246
-281.424 -454.968 460.651 226 238 246
-283.807 -454.968 459.186 227 239 247
-269.983 -429.215 431.801 228 239 247
-225.43 -355.443 356.422 229 239 247
-213.904 -334.535 334.352 229 239 247
-203.654 -315.95 314.726 229 238 247
-202.47 -311.622 309.37 230 238 247
-204.07 -311.622 308.317 229 237 246
-205.665 -311.622 307.255 230 238 247
-213.093 -320.4 314.81 231 239 248
-190.565 -284.355 278.411 232 239 248
-166.961 -247.265 241.234 234 239 247
-166.4 -244.606 237.781 234 239 247
-167.63 -244.606 236.916 233 238 246
-174.483 -252.76 243.912 234 239 247
-195.272 -280.844 270.006 234 239 247
-209.607 -299.321 286.687 233 238 246
-1917.02 -2527.6 2306.25 238 243 249
-964.474 -1263.8 1148.14 238 243 249
-545.856 -710.887 643.011 239 244 250
-390.528 -505.52 455.235 239 244 250
-353.593 -454.968 407.885 239 244 250
-291.559 -372.924 332.825 239 244 250
-218.171 -277.419 246.463 239 244 250
-189.416 -239.457 211.757 239 244 250
-161.594 -203.111 178.781 239 244 250
-120.543 -150.652 131.983 239 244 250
-112.994 -140.422 122.437 240 244 248
-115.047 -142.177 123.373 240 244 248
-115.685 -142.177 122.775 240 244 248
-116.32 -142.177 122.174 240 244 248
-1633.22 -1895.7 1546.48 241 245 249
-1962.02 -2068.03 1473.46 244 245 250
-1969.63 -2068.03 1463.28 243 244 249
-1161.88 -1197.28 817.337 245 246 251
-1303.28 -1338.14 906.754 245 246 251
-1307.96 -1338.14 899.989 244 245 250
-1394.65 -1421.77 949.024 244 245 250
-1399.55 -1421.77 941.785 244 245 250
-1404.41 -1421.77 934.521 244 245 250
-1503.18 -1516.56 989.047 243 244 249
-2056.75 -2068.03 1338.06 243 244 249
-2057.25 -1895.7 909.234 235 240 248
-1767.37 -1624.88 770.196 234 239 247
-1549.92 -1421.77 665.9 234 239 247
-1380.76 -1263.8 584.764 235 240 248
-1383.77 -1263.8 577.602 236 241 249
-1386.74 -1263.8 570.425 236 241 249
-1389.68 -1263.8 563.232 236 241 249
-1139.38 -1034.02 454.928 235 240 249
-930.295 -842.533 365.867 235 240 249
-932.179 -842.533 361.042 234 239 249
-934.037 -842.533 356.207 234 239 249
-842.283 -758.279 316.226 234 239 249
-843.91 -758.279 311.858 234 239 249
-874.67 -784.427 318.084 234 239 249
-1270.64 -1137.42 454.644 233 238 248
-1272.98 -1137.42 448.054 233 238 248
-1062.74 -947.849 367.877 233 238 248
-946.339 -842.533 322.102 233 238 248
-947.996 -842.533 317.195 233 238 248
-1165.45 -1034.02 383.251 233 238 248
-2568.33 -2274.84 829.856 231 238 247
-1525.22 -1338.14 440.954 229 236 250
-961.751 -842.533 272.658 229 236 250
-963.151 -842.533 267.671 228 235 249
-1736.15 -1516.56 472.819 228 235 249
-677.023 -583.292 143.52 223 230 253
-677.758 -583.292 140.01 223 230 255
-617.794 -529.032 111.019 208 212 246
-648.525 -554.839 113.076 201 201 246
-665.329 -568.709 112.457 187 185 236
-807.155 -689.345 132.131 170 167 221
-833.074 -710.887 131.946 147 141 200
-808.481 -689.345 123.76 121 111 176
-809.112 -689.345 119.569 89 78 145
-835.024 -710.887 118.981 62 47 114
-1028.47 -874.938 141.111 52 29 94
-19.4138 -16.4724 2.25483 35 7 50
-19.1342 -16.2257 2.12195 34 7 44
-18.8624 -15.9862 1.99292 33 7 38
-18.4956 -15.6669 1.85731 32 7 36
-18.1549 -15.3705 1.72813 31 6 33
-17.9934 -15.2265 1.61873 30 7 26
-17.8818 -15.1253 1.51533 29 9 18
-17.7011 -14.966 1.40768 28 9 13
-17.7082 -14.966 1.31594 28 9 13
-17.7148 -14.966 1.22417 28 9 13
-17.7209 -14.966 1.13237 27 9 13
-17.7265 -14.966 1.04053 26 9 12
-17.7317 -14.966 0.948673 26 9 12
-17.7363 -14.966 0.856784 25 8 11
-17.7405 -14.966 0.764875 25 8 11
-17.7443 -14.966 0.672942 24 7 10
-17.7475 -14.966 0.58099 23 6 9
-17.7503 -14.966 0.489028 23 6 9
-17.7526 -14.966 0.397048 23 6 9
-17.7544 -14.966 0.305061 23 6 9
-17.7557 -14.966 0.213062 23 6 9
-17.7566 -14.966 0.121062 23 6 9
-17.757 -14.966 0.0290536 23 6 9
-17.7569 -14.966 -0.0629508 22 6 9
-17.7563 -14.966 -0.154958 21 6 8
-17.7553 -14.966 -0.246961 20 6 8
-17.7538 -14.966 -0.338953 19 6 8
-17.7518 -14.966 -0.43094 18 6 8
-17.7493 -14.966 -0.522911 17 5 7
-17.7464 -14.966 -0.614873 17 5 7
-17.7429 -14.966 -0.706814 17 5 7
-17.739 -14.966 -0.79874 17 5 7
-17.7347 -14.966 -0.890644 17 5 7
-17.7298 -14.966 -0.982521 17 5 7
-17.7245 -14.966 -1.07437 17 5 7
-17.7187 -14.966 -1.1662 17 5 7
-17.7124 -14.966 -1.25799 17 5 7
-17.7056 -14.966 -1.34975 17 5 7
-17.6984 -14.966 -1.44147 17 5 7
-17.6907 -14.966 -1.53315 17 5 7
-17.6825 -14.966 -1.6248 17 5 7
-17.6739 -14.966 -1.7164 17 5 7
-17.6647 -14.966 -1.80795 17 5 7
-17.6551 -14.966 -1.89945 16 4 6
-17.645 -14.966 -1.9909 16 4 6
-17.6345 -14.966 -2.08231 16 4 6
-17.6235 -14.966 -2.17365 16 4 6
-17.612 -14.966 -2.26493 16 4 6
